ply
format ascii 1.0
element vertex 1667
property float x
property float y
property float z
end_header
-0.166340 -0.039200 0.032850
-0.184100 -0.040630 -0.108380
-0.180670 -0.040350 0.012980
-0.196730 -0.041640 -0.111060
-0.175410 -0.039930 -0.058860
-0.170360 -0.039520 -0.046230
-0.173160 -0.039750 0.036630
0.278580 -0.020210 0.112620
-0.253900 -0.022220 -0.141710
-0.280340 -0.055640 -0.112060
0.323210 -0.046560 -0.135410
-0.225660 -0.137980 0.146570
0.377520 -0.058670 0.157670
-0.330180 0.016910 0.137820
-0.307350 0.003750 0.139110
0.314520 -0.049970 -0.126850
-0.167000 -0.056670 -0.136060
0.376170 -0.039420 0.051770
0.375360 -0.058930 -0.020440
0.374740 -0.073790 -0.001510
0.376090 -0.041340 0.040170
0.375240 -0.061770 0.056910
0.375230 -0.062130 0.018680
0.374770 -0.073070 -0.031320
0.375000 -0.067750 -0.024340
0.375800 -0.048360 0.025810
0.374810 -0.072300 -0.051720
-0.404740 0.024130 -0.145720
0.156010 -0.082680 -0.162040
-0.324830 0.040590 -0.009570
0.252870 0.016100 0.081640
0.230180 0.019290 0.057080
0.213550 0.020620 0.059060
-0.298570 -0.068970 -0.130170
-0.206010 0.119170 0.067660
0.053390 0.103670 0.111470
0.131860 0.064950 -0.080490
0.144990 0.056310 -0.072580
0.130330 0.067510 -0.069300
0.103140 0.088660 -0.060170
0.166520 0.039080 -0.083650
0.362990 -0.095070 -0.087880
0.320100 -0.094400 -0.099590
0.360560 -0.095060 -0.103600
0.333040 -0.094580 -0.081220
0.255120 -0.093320 -0.083130
0.037000 0.025150 0.153230
-0.257790 -0.129840 -0.126770
-0.346780 -0.083970 -0.004690
-0.340010 -0.084830 -0.033400
-0.299630 -0.090020 0.034820
-0.352520 -0.083230 -0.017680
-0.356990 -0.082650 0.005350
-0.322030 -0.087140 0.029540
-0.349200 -0.083650 0.045930
-0.328340 -0.086330 -0.018110
-0.230320 0.082570 -0.123730
-0.239560 0.044850 -0.141500
-0.247810 0.074310 -0.125540
-0.281440 -0.013930 0.165380
0.316940 -0.040440 0.117550
0.285480 -0.024030 0.108100
0.294970 -0.025990 0.130470
0.354190 -0.067750 0.150460
-0.320460 -0.048320 0.164420
0.153400 0.022480 -0.157050
0.270430 -0.067760 -0.143550
0.254310 -0.051260 0.074750
0.240040 -0.053210 0.074750
0.246690 -0.054210 0.074750
0.262560 -0.048120 0.074750
0.330540 -0.101690 0.148580
0.253750 -0.109850 -0.149790
-0.204650 -0.028360 0.131440
-0.211140 -0.037740 0.115000
-0.224500 -0.035530 0.115000
-0.218870 -0.056370 0.115000
-0.197430 -0.070800 0.115000
-0.218010 -0.048820 0.115000
0.287650 -0.019750 -0.135430
-0.205670 0.119950 -0.024850
0.302760 -0.052890 0.146160
0.330720 -0.083950 -0.107270
0.102070 -0.078390 -0.169980
0.031280 -0.086600 -0.166750
0.123320 -0.089820 -0.166770
0.126460 -0.081960 -0.169170
0.278040 -0.137420 -0.148610
-0.367430 -0.104490 0.069790
-0.231040 -0.142780 0.155950
-0.248890 -0.128680 0.132860
-0.119380 -0.086700 -0.172010
-0.106040 -0.082680 -0.171500
0.172450 0.025600 -0.124350
0.250010 -0.132330 0.120770
0.324380 -0.044240 0.145080
0.020360 -0.020460 0.138460
0.281490 -0.017760 -0.112100
0.353260 -0.039080 -0.103030
0.357450 -0.067420 -0.089670
0.305240 -0.030400 -0.106450
0.240240 -0.017520 -0.111630
0.312740 -0.038650 -0.102650
0.363740 -0.028990 -0.107960
0.341790 -0.080920 -0.083050
0.328120 -0.054110 -0.095550
0.296010 -0.029920 -0.106550
0.351910 -0.065070 -0.090700
0.163090 0.019410 -0.151950
-0.072800 0.082030 -0.130810
0.397320 -0.042070 -0.093660
-0.238490 -0.024530 -0.112010
-0.234890 -0.132690 0.106560
0.310710 -0.031530 -0.175260
-0.251820 -0.027860 0.105090
0.197780 -0.008370 0.021730
0.197660 -0.013710 0.049720
0.197910 -0.001860 -0.001890
0.197820 -0.006050 -0.014740
0.198070 0.005780 -0.017860
0.125410 0.033400 -0.159010
0.159920 -0.025350 -0.167870
-0.119100 0.118820 -0.113030
-0.288190 -0.063830 -0.109330
0.300360 -0.017510 0.120550
0.272790 -0.016690 0.110570
0.287610 -0.083420 0.162530
0.102270 -0.090900 0.150750
0.119300 -0.091140 0.153060
-0.266470 -0.119160 0.123910
0.273960 -0.115190 0.145000
0.255510 -0.028070 0.132400
-0.215120 0.006610 -0.169140
-0.416380 -0.071140 0.134880
0.130600 0.037920 0.144420
0.261610 -0.065260 0.128220
0.303030 -0.079390 -0.113890
0.044370 -0.044220 0.122330
0.318560 -0.077810 -0.099990
0.316980 -0.015770 0.041450
0.223230 -0.087810 -0.151170
-0.284950 -0.049760 0.105790
-0.187020 -0.017740 0.138850
0.416740 -0.069320 -0.117420
0.001650 0.103780 0.119570
-0.407560 -0.037550 0.125790
0.305950 -0.027430 0.163810
0.231570 -0.084890 0.090630
0.220560 -0.068130 -0.155180
0.255660 -0.024000 -0.158920
0.322820 -0.035930 0.027070
-0.309060 0.023360 -0.156980
0.408790 -0.032390 -0.048350
0.141370 -0.053050 0.146150
0.218980 -0.027300 -0.095470
0.421360 -0.076480 0.036360
0.315770 -0.074450 -0.091840
-0.088340 0.052260 -0.144490
-0.166820 -0.099190 0.164510
0.263160 -0.139360 0.133070
-0.180770 -0.096840 -0.114610
-0.403230 -0.047640 0.003690
-0.403170 -0.043840 -0.057710
-0.208210 0.030690 -0.155670
-0.182520 -0.047830 0.114450
0.237600 -0.044970 -0.070810
-0.321240 0.016450 -0.160100
-0.333210 0.036120 0.141130
-0.416740 -0.054410 -0.156240
-0.194850 -0.034850 0.115170
0.054630 -0.050460 0.026620
0.073400 -0.045990 0.024210
-0.291340 -0.080840 0.140350
0.308560 -0.028770 -0.131020
0.308240 -0.084980 -0.094510
0.157990 -0.067180 0.148410
-0.174110 -0.083360 -0.121200
0.144380 0.040220 0.127220
0.131040 0.058730 0.107060
0.165610 0.030240 0.117210
0.164790 0.033840 0.110650
0.078840 -0.039760 0.034010
-0.232390 -0.012770 -0.171140
0.007300 0.120940 0.015640
-0.042500 0.122740 0.042920
0.036890 0.119860 0.016690
0.025680 0.120270 0.011850
-0.056040 0.123230 0.043090
0.036580 0.119880 0.002660
-0.252310 -0.025740 0.131740
0.249250 -0.104090 0.123870
0.246840 -0.042630 0.118000
0.392450 -0.021270 0.133820
-0.170580 -0.070030 -0.131940
0.142570 0.032680 0.144240
0.089210 0.077980 0.126120
0.297020 0.014790 -0.049040
0.311550 0.013240 -0.046180
0.274090 0.017760 -0.035450
0.242460 -0.039050 -0.146010
0.295330 -0.031090 -0.160880
-0.285060 -0.037990 0.132400
0.008710 -0.080320 0.160950
-0.049070 -0.075610 0.161750
-0.021790 -0.084340 0.159400
0.110540 -0.072120 0.164520
-0.374850 -0.077150 0.077970
0.273780 -0.143640 0.141260
-0.201640 -0.026340 -0.170710
-0.149030 0.110830 -0.124710
-0.121510 0.113520 -0.121360
0.218520 -0.122000 0.165290
-0.194860 -0.082260 -0.134070
-0.074240 -0.021240 0.164200
-0.161920 -0.088570 0.155230
-0.163520 -0.076540 0.122770
0.078330 0.085980 0.124170
0.388980 -0.012970 -0.085740
0.306450 0.014250 0.020020
0.322610 0.012310 0.018010
-0.242390 -0.013230 0.109980
-0.069750 0.060910 0.138910
-0.063840 0.056230 0.140850
0.420460 -0.050810 -0.012310
-0.391030 0.003490 0.103910
-0.391090 -0.003640 0.099070
-0.187450 -0.128170 -0.169420
0.242230 -0.130580 0.131290
-0.264670 -0.124420 0.128990
0.414420 -0.062630 -0.130370
-0.264110 -0.124900 -0.122930
-0.126880 -0.014680 -0.151550
-0.104590 -0.025020 -0.152830
-0.136280 -0.028730 -0.151230
-0.350360 -0.000570 0.136660
-0.333380 -0.008890 0.137500
-0.220430 -0.074610 0.123360
-0.246840 -0.020560 0.120700
0.258350 -0.133740 -0.190070
-0.306620 0.011210 0.155580
-0.379650 0.023090 -0.151790
-0.227510 -0.046920 -0.128730
-0.391040 -0.078350 -0.155520
-0.376900 -0.082800 -0.156310
-0.275410 -0.037950 -0.148790
0.310260 -0.080180 -0.123330
0.276120 -0.143080 -0.167370
0.319560 -0.133870 -0.147110
-0.213090 0.118430 -0.055470
-0.057930 0.027040 0.143260
0.107010 0.022600 0.141750
0.044190 0.024210 0.142330
-0.190590 -0.023810 -0.142230
0.022460 -0.108490 0.142490
-0.034750 -0.107610 0.153680
0.045090 -0.108840 0.124170
0.128740 -0.110130 0.097690
0.162860 -0.110650 0.089700
0.138370 -0.110270 0.107150
0.080960 -0.109390 0.131000
0.177230 -0.110880 0.101720
0.088440 -0.109510 0.116230
0.008330 -0.108270 0.145220
-0.219280 0.111460 -0.102000
0.216850 0.019540 0.075400
0.208000 0.019920 0.085030
0.202450 -0.096240 0.146420
0.383010 -0.036590 -0.121060
-0.266030 0.082570 0.032980
-0.289460 0.065730 0.041000
-0.247770 0.095670 0.038410
-0.274380 0.076570 0.031700
-0.248420 0.095220 0.023830
-0.302050 0.056680 0.050260
-0.181670 -0.043800 0.145970
0.330370 0.011490 -0.006170
0.377730 0.002570 -0.028170
0.316780 -0.086460 -0.110710
0.337270 0.001340 -0.140110
0.250990 -0.135490 0.130310
-0.116980 -0.065160 -0.174130
-0.136760 -0.062530 -0.175470
0.142480 0.026320 0.051440
-0.195950 -0.004320 -0.178220
0.027270 0.117130 0.094830
0.002720 0.119410 0.087510
-0.010410 0.119390 0.090220
-0.036310 0.035830 0.065030
0.213500 0.011810 0.148320
0.240020 -0.065380 0.092890
-0.028080 0.041060 -0.074680
-0.207100 -0.061000 0.127510
0.219450 -0.048420 0.159030
0.337900 -0.066580 -0.148580
-0.041360 0.121420 -0.092920
-0.014510 0.119830 -0.096130
0.215040 -0.069560 0.137230
-0.262880 -0.028360 0.116610
0.288860 -0.008340 -0.016930
0.224050 -0.017710 -0.007160
0.273370 -0.006800 -0.018160
-0.412240 0.016120 -0.119310
-0.174060 -0.082860 -0.167060
-0.177180 -0.074440 -0.126350
-0.248770 -0.131930 -0.123270
-0.185900 -0.039710 -0.136220
0.161010 -0.068830 0.165160
0.269850 -0.095780 0.132890
0.155860 -0.040210 0.151360
0.273990 -0.133010 -0.142540
0.417100 -0.100760 0.030820
-0.195930 0.029630 0.149170
0.324770 -0.062930 0.156230
0.024310 -0.032510 -0.146050
0.421780 -0.076490 -0.015550
0.374830 -0.005050 0.131620
-0.014250 -0.068070 0.164010
-0.060760 -0.067530 0.163720
0.034520 -0.069850 0.164260
0.001340 -0.066820 0.164170
0.265200 -0.039590 -0.185550
0.062120 0.117100 -0.016050
0.331240 -0.107190 -0.138080
-0.242290 -0.090050 0.137290
-0.285590 -0.056750 -0.173590
0.405380 -0.014570 0.084680
-0.281490 -0.107820 0.125220
-0.251020 -0.015060 -0.118080
-0.191400 -0.118550 -0.167090
-0.322450 0.043260 -0.030780
-0.293810 0.063850 -0.013450
-0.304450 0.055350 -0.043560
-0.306490 0.054390 -0.030960
-0.266150 0.083230 -0.011070
-0.275460 0.076870 -0.007460
-0.308360 0.053570 -0.017320
0.412990 -0.050360 0.040400
-0.076230 -0.050510 0.164600
-0.077390 -0.057980 0.164420
-0.175120 -0.048670 -0.119240
-0.180670 -0.038480 -0.124230
0.323360 -0.051690 0.162270
0.163530 0.038040 0.103140
0.137110 0.058860 0.097250
0.097220 0.090840 0.080410
0.101390 0.087770 0.078070
0.272340 0.008270 0.143690
-0.249650 -0.131580 0.141720
-0.001760 -0.089200 -0.156400
-0.024320 -0.088850 -0.158260
-0.301280 0.042230 0.035700
-0.312120 0.042060 0.040080
-0.305740 0.042170 0.027190
-0.277720 0.042600 0.030160
-0.175230 -0.055820 -0.149560
-0.385350 -0.068080 0.152800
0.287820 -0.035640 -0.110320
-0.409640 -0.008970 -0.133740
-0.409890 -0.018610 -0.119880
0.233350 -0.015510 0.126300
0.231470 -0.015450 0.135740
0.001730 0.023450 0.154570
-0.032600 0.022370 0.155760
0.016220 0.019370 0.157010
-0.292760 -0.056360 -0.121620
0.241550 -0.133070 0.153930
0.294230 -0.051920 -0.122650
0.275310 -0.026230 -0.186750
-0.120580 0.114440 0.112120
-0.124390 0.109790 0.116730
0.231840 0.005040 0.158550
-0.235470 0.100720 0.093560
-0.271540 0.070130 0.113220
-0.219620 -0.142430 -0.164790
0.224940 -0.113620 -0.144240
0.321660 -0.023430 0.049330
0.426890 -0.067820 -0.007300
0.220090 -0.097980 0.119680
0.245630 -0.003570 0.014330
0.258240 -0.003760 0.015920
0.304180 -0.004470 0.021260
-0.243660 -0.130140 0.111720
0.289740 -0.136820 -0.158210
0.038680 -0.046720 -0.171640
0.077460 -0.001510 0.150020
0.233420 -0.009490 0.019180
0.322960 -0.120090 0.153500
-0.404910 -0.017670 0.052480
0.381880 -0.031450 -0.128840
0.190240 0.020260 -0.003680
0.285180 -0.133200 0.193390
-0.170420 -0.088370 0.116150
-0.391190 -0.019640 0.065450
-0.391110 -0.007040 0.084590
-0.363690 -0.020440 -0.161610
0.250490 -0.023110 -0.148600
0.159540 0.022090 0.077470
0.173110 0.016950 0.093210
-0.115110 0.038200 0.146440
-0.130940 0.067090 0.134710
-0.137100 0.051590 0.140550
-0.155960 0.075120 0.130810
-0.149410 0.066100 0.134520
-0.123750 0.052890 0.140460
-0.177890 -0.098860 -0.171230
0.252420 -0.099060 0.128490
-0.224930 -0.019010 0.112720
-0.176080 -0.102060 -0.152280
-0.283220 -0.035800 0.111990
0.244660 -0.039090 -0.163030
0.205560 -0.098770 -0.158760
-0.170250 -0.080920 -0.163050
0.226730 -0.060340 -0.154100
-0.133940 0.122440 -0.092610
-0.104160 0.122350 -0.094720
-0.170150 -0.106150 0.117500
0.158300 -0.058080 -0.165430
-0.247260 -0.019380 0.150460
0.057440 -0.009510 0.142000
0.198050 0.004200 0.048250
-0.273370 -0.036040 -0.133870
0.269870 -0.082440 0.130500
-0.390250 -0.096030 0.142160
0.192930 -0.040070 -0.155870
0.176050 -0.023360 -0.155870
-0.389780 0.041320 0.109690
-0.372160 0.041770 0.131900
-0.386900 0.041320 0.121840
-0.354840 0.042480 0.124240
-0.275880 -0.028580 0.113510
0.144730 0.014710 -0.145760
-0.357520 -0.029700 0.135640
-0.315310 -0.026030 0.138280
-0.348450 -0.010830 0.136280
0.301220 -0.022880 -0.165360
-0.171170 -0.069200 -0.142320
0.265800 -0.140630 -0.138330
-0.288160 -0.058890 0.142660
0.033400 0.109520 -0.116610
-0.250610 0.024860 0.150890
0.061940 -0.066460 -0.172040
0.092670 -0.069720 -0.172110
-0.015110 -0.068810 -0.171420
0.037840 -0.060610 -0.172130
-0.262770 -0.028300 0.149890
0.242620 -0.060760 0.108990
0.223080 -0.037550 0.143260
-0.199530 -0.061960 -0.124580
-0.087050 -0.088170 -0.148390
-0.155410 -0.088150 -0.125430
0.197760 -0.008060 0.115300
0.260000 -0.137220 0.168130
-0.037940 0.106860 -0.119730
-0.250030 -0.054740 0.136940
0.233880 -0.053930 -0.185490
0.289690 -0.021290 -0.118900
0.167890 0.015240 -0.156750
0.266870 -0.008110 -0.138040
0.300190 -0.001770 0.138160
0.074140 -0.040880 -0.045640
0.278130 -0.143500 -0.173650
0.268850 -0.077530 -0.160720
0.241090 -0.093130 -0.084940
0.263770 -0.093580 -0.101320
0.253880 -0.093560 -0.115330
0.308860 -0.094290 -0.108550
0.312410 -0.094300 -0.104040
0.300330 -0.078450 0.160700
0.204990 0.019720 -0.102980
0.205050 0.020610 -0.083000
0.339700 -0.054770 -0.169430
-0.322480 0.035970 0.053600
0.137560 0.003900 0.099070
0.149830 0.030770 -0.146820
-0.284190 -0.051020 -0.136080
0.354480 -0.056480 -0.159440
-0.067580 0.066220 0.130000
-0.073020 0.096100 0.117400
0.317320 -0.115150 0.166180
0.190630 0.003440 -0.168360
0.227220 -0.058730 -0.160780
-0.268980 0.047310 0.138270
-0.219220 0.084300 0.125500
0.290390 -0.139200 0.149670
-0.018260 -0.025480 -0.094320
-0.020270 -0.014030 -0.088190
0.041150 -0.033970 -0.145850
-0.290880 -0.079090 -0.115230
-0.411490 0.037690 -0.041990
0.127630 0.010550 0.079150
0.095450 0.062450 -0.136590
0.376580 -0.019760 0.034330
-0.404760 -0.017160 0.006710
-0.403830 -0.013500 -0.032430
-0.399840 0.002080 -0.058360
0.055600 -0.069960 -0.131270
0.421380 -0.059030 -0.082750
-0.256160 0.074930 0.121910
-0.247360 0.077510 0.122670
0.033780 0.017020 -0.150710
0.075710 0.015920 -0.150720
0.252540 -0.128220 -0.174220
-0.201750 -0.023390 0.151580
0.408500 -0.080470 -0.002220
-0.171300 -0.049350 0.169940
0.244200 -0.071960 -0.205410
0.227990 -0.053310 0.113080
0.260450 -0.123630 -0.153910
-0.175890 -0.061870 0.113970
0.362730 -0.069820 0.148820
0.167240 0.032720 -0.116890
0.110840 0.076670 -0.105790
0.130700 0.054160 -0.124890
0.164320 0.029970 -0.127150
0.094730 0.091040 -0.098690
-0.269910 -0.035390 0.169830
0.388570 -0.023880 -0.089330
-0.266090 -0.058370 -0.116690
-0.257350 -0.053420 -0.116670
0.183720 0.024930 0.070240
-0.051520 0.112850 -0.116530
0.227090 -0.100920 0.111830
-0.411480 0.035310 -0.075520
-0.388690 -0.083710 0.102640
0.049410 -0.048130 -0.172170
-0.246260 -0.112420 0.122170
-0.182180 -0.123300 -0.118170
0.223890 -0.090140 0.100140
-0.290160 -0.058430 -0.153110
0.330860 -0.098880 -0.127780
0.321260 -0.017320 -0.038770
-0.205260 -0.130280 -0.154120
0.215530 -0.015130 0.112610
-0.275690 -0.087450 -0.122290
0.133180 0.024940 0.146300
0.244520 -0.040560 -0.169310
-0.324370 0.042170 0.114450
-0.332640 0.042260 0.117910
-0.360790 0.042730 0.066110
-0.185980 -0.043980 -0.128950
-0.163010 -0.077430 0.160960
0.356280 -0.019950 0.072550
0.081610 -0.046690 0.116600
-0.404150 0.009810 -0.104180
-0.163210 -0.079800 0.143010
0.124440 0.038320 0.161480
-0.298000 -0.068700 -0.150650
-0.165220 -0.065300 -0.135480
-0.031220 -0.009260 0.056050
-0.029270 -0.025090 0.073520
-0.029580 -0.022570 0.081700
-0.030510 -0.015070 0.068370
0.129860 0.026780 0.168590
0.176490 0.030140 -0.100200
0.061160 -0.090230 0.153300
-0.246190 -0.115660 -0.131700
0.289410 -0.017210 0.134060
0.327530 -0.112560 -0.143120
0.305980 -0.052790 0.184210
-0.208280 -0.137060 0.106860
0.226300 -0.109610 -0.147750
-0.156850 0.105540 -0.127280
0.259990 -0.035550 0.080860
-0.079640 0.123800 0.055670
-0.012930 0.120750 0.078820
-0.075180 0.123800 0.049140
-0.005620 0.120740 0.068740
-0.037070 0.121540 0.082780
-0.403200 -0.051630 0.071050
-0.182790 -0.114970 0.155330
-0.182950 0.026290 -0.159020
0.306910 -0.037690 -0.103010
0.064230 0.115240 0.071530
-0.210040 -0.022490 0.122080
-0.210160 -0.015800 0.155600
0.197610 -0.103900 -0.174110
-0.244930 -0.129860 -0.118450
-0.260590 -0.029470 -0.171440
-0.205390 -0.137800 -0.163200
0.160210 0.019640 0.144800
-0.282200 -0.046660 0.130920
0.309630 -0.032570 -0.157810
-0.181330 -0.053130 -0.111670
-0.029860 -0.088770 0.152360
0.110590 -0.091030 0.148900
0.269390 -0.139190 0.190370
0.105790 0.066140 0.127400
-0.224060 0.018070 -0.063370
-0.218640 0.004180 -0.034170
-0.215810 -0.003150 -0.006100
-0.221250 0.010840 -0.043390
-0.181180 -0.043420 0.165480
0.261840 -0.048780 0.102350
-0.275100 -0.028390 -0.126670
0.223700 -0.040150 0.052670
0.230830 -0.034920 0.028510
0.297640 -0.030600 0.004350
0.268340 -0.032140 0.013350
0.225670 -0.036930 0.037960
0.237020 -0.029890 0.005370
-0.237880 -0.075770 -0.129920
-0.203330 -0.033150 0.128530
0.125800 -0.056170 0.139610
0.098260 -0.054110 0.139610
-0.329730 -0.047740 -0.170920
0.217060 0.005050 -0.166870
-0.200960 -0.006680 0.170640
-0.187440 -0.002540 0.170980
-0.391010 0.005900 -0.121490
-0.391190 -0.009550 -0.135840
0.257600 -0.116430 -0.146600
0.021420 -0.071530 0.147820
-0.064000 -0.071500 0.147380
0.005450 -0.074980 0.147710
0.081150 -0.076510 0.148090
0.205540 -0.098010 0.163450
-0.358030 -0.064160 -0.117970
0.309810 -0.004190 -0.122940
0.126750 0.035680 0.139070
0.384620 -0.080110 -0.159790
-0.153400 0.003900 -0.176170
0.227640 -0.015370 -0.140730
-0.335580 0.038150 -0.148070
0.168050 0.014900 0.030400
0.142060 -0.064890 -0.155380
-0.222020 -0.018610 -0.159900
-0.206140 -0.088190 0.101110
-0.162170 -0.088620 -0.048120
-0.217240 -0.088270 0.071890
-0.169470 -0.088270 0.072960
-0.180740 -0.088480 0.000730
-0.168340 -0.088360 0.040140
-0.187570 -0.088240 0.082600
-0.212410 -0.088350 0.043250
-0.161610 -0.088700 -0.077600
-0.188210 -0.088520 -0.015900
-0.165360 -0.088520 -0.015990
-0.205600 -0.088320 0.053930
-0.196880 -0.088210 0.092890
-0.217820 -0.088190 0.099410
-0.162990 -0.088660 -0.061680
-0.179580 -0.088580 -0.033760
-0.407140 -0.026610 0.050500
-0.197350 0.075770 -0.134530
0.353850 -0.024980 -0.110430
-0.345690 -0.093700 0.081860
-0.162000 -0.104000 -0.119810
-0.163620 -0.077130 -0.124590
-0.413620 -0.000490 0.052330
0.229100 -0.048950 -0.172540
-0.093130 -0.088330 -0.129380
-0.106620 -0.088340 -0.096640
-0.151770 -0.088400 0.003710
-0.131380 -0.088460 -0.071970
-0.091280 -0.088170 -0.079200
-0.139860 -0.088190 0.044670
-0.149130 -0.088470 -0.025770
-0.105980 -0.088450 -0.139330
-0.124520 -0.088440 -0.083200
-0.106010 -0.088400 -0.118600
-0.141870 -0.088540 -0.070860
-0.119530 -0.088480 -0.112740
-0.109350 -0.088200 -0.041700
-0.132250 -0.088300 -0.012610
-0.119900 -0.088240 -0.027920
-0.150860 -0.088450 -0.015880
-0.159140 -0.088800 -0.113800
-0.390330 -0.063610 -0.125200
0.386740 -0.011160 -0.140350
0.220010 -0.013110 0.017450
-0.214480 -0.141180 -0.133490
-0.080510 0.058910 -0.140790
0.400500 -0.113650 0.142580
0.170070 0.021470 0.127760
-0.286470 -0.099700 -0.149960
0.331250 -0.055710 0.144230
0.329900 -0.053040 0.115790
0.282890 -0.105130 0.148090
0.194560 0.022680 -0.086680
0.285920 -0.139060 -0.179730
-0.173730 -0.098780 0.108410
0.342510 -0.105330 0.160660
-0.251840 -0.132420 0.116250
-0.260320 0.042850 -0.051590
-0.297420 0.042260 -0.061460
-0.280180 0.042560 -0.038160
-0.300510 0.042220 -0.056640
0.301410 -0.035880 0.055140
-0.136270 0.029190 -0.158420
-0.320620 0.024710 -0.038290
-0.303600 -0.011160 -0.057810
-0.308340 -0.001660 -0.047670
-0.320080 0.025040 -0.052870
0.343140 -0.067610 -0.169680
0.307630 -0.128650 0.175330
-0.114460 -0.055200 -0.151960
-0.077450 -0.043240 -0.154190
-0.101920 -0.049370 -0.152720
0.259090 0.010790 0.132650
0.250100 0.014380 0.108500
0.301190 -0.039090 -0.104430
-0.287930 -0.094080 -0.171980
-0.221030 -0.092600 0.124550
0.028700 0.107090 -0.125130
0.185610 -0.042070 0.167670
0.308900 -0.097770 -0.093400
-0.270070 -0.031260 -0.139590
-0.116940 -0.038440 0.167330
-0.075980 -0.036470 0.164770
0.288980 -0.117280 -0.101840
0.018620 -0.089520 -0.114830
0.073290 -0.090420 -0.013790
0.002550 -0.089260 -0.138910
0.076130 -0.090460 0.002120
0.143450 -0.091560 -0.050250
0.148270 -0.091640 -0.006780
0.098540 -0.090830 -0.065990
0.017250 -0.089500 -0.098330
0.085500 -0.090620 -0.154140
0.104550 -0.090930 0.012610
0.116350 -0.091120 -0.017550
0.094720 -0.090770 -0.082970
0.049960 -0.090040 -0.134650
0.102790 -0.090900 0.034640
0.075550 -0.090450 0.018330
0.049380 -0.090030 -0.054120
-0.031150 -0.088710 -0.108370
0.048620 -0.090010 -0.145580
0.056550 -0.090140 -0.154670
0.110950 -0.091030 0.003650
0.013320 -0.089440 -0.069320
0.035380 -0.089800 -0.088590
0.073280 -0.090420 -0.002430
0.003470 -0.089280 -0.116410
0.096340 -0.090790 -0.038510
0.118120 -0.091150 -0.051410
0.108470 -0.090990 -0.125380
0.141790 -0.091530 -0.015620
0.115450 -0.091100 -0.030600
0.083580 -0.090580 0.039410
0.040070 -0.089870 -0.012040
-0.022550 -0.088850 -0.115930
0.128730 -0.091320 -0.122150
-0.008530 -0.089080 -0.111470
0.067030 -0.090310 -0.081950
0.096320 -0.090790 -0.120890
0.075690 -0.090460 -0.043060
0.033010 -0.089760 -0.065300
0.113650 -0.091080 -0.043550
0.077840 -0.090490 0.023550
0.092980 -0.090740 0.057250
0.069010 -0.090350 -0.139430
0.125400 -0.091270 -0.057180
0.096990 -0.090800 -0.098880
0.137520 -0.091460 -0.078390
0.120600 -0.091190 0.078010
0.145370 -0.091590 0.025580
0.129420 -0.091330 -0.053510
0.034520 -0.089780 -0.144460
-0.051110 -0.088390 -0.145030
0.111650 -0.091040 -0.013760
0.014850 -0.089460 -0.043310
0.070270 -0.090370 -0.121730
0.101120 -0.090870 0.041780
0.097840 -0.090820 -0.152610
0.120390 -0.091190 -0.086880
-0.138170 -0.106110 -0.133060
-0.152050 -0.105920 -0.132010
-0.143770 -0.106030 -0.163170
-0.131180 -0.106210 -0.174150
-0.120510 -0.106360 -0.165870
0.123940 0.014860 0.042600
-0.173930 -0.097640 0.121120
0.301300 -0.131720 -0.141870
-0.206500 -0.128700 0.118000
0.246130 -0.031820 0.129270
0.235870 -0.033620 0.149300
0.235600 -0.037250 0.128000
0.246530 -0.034210 0.113420
0.173490 0.016520 0.100670
0.204570 -0.067210 0.142910
0.256880 -0.049080 0.110070
-0.383950 0.041770 0.058610
-0.404550 0.040710 0.078460
-0.400910 0.040940 0.061200
-0.385470 0.041650 0.074490
0.269690 -0.133390 -0.174340
-0.029790 0.122080 0.051600
0.043550 0.118750 0.076290
0.007150 0.120270 0.069060
0.014070 0.119930 0.072090
0.024530 0.119700 0.066640
-0.234560 -0.021940 0.162260
-0.067250 -0.103640 0.162960
-0.250580 -0.021420 -0.134260
-0.257550 -0.021690 -0.163630
-0.245230 -0.020180 -0.132130
0.309130 -0.111910 -0.124290
-0.027760 0.119070 -0.102740
0.262010 -0.046080 -0.196070
0.060480 0.025210 -0.150240
-0.020580 -0.006030 -0.109810
0.346110 -0.061890 -0.168990
-0.230550 -0.100020 0.137290
0.411280 -0.050890 -0.133260
-0.416740 -0.076110 0.092680
-0.191440 -0.001360 -0.146990
-0.233540 -0.142890 0.109370
0.348070 -0.049050 0.157500
-0.233730 -0.057440 0.137290
0.054340 0.001240 0.164110
0.141840 0.007380 0.160660
0.108970 -0.000930 0.164000
0.126250 -0.027210 0.165760
0.140950 -0.022730 0.165340
0.105640 -0.032630 0.166250
0.141410 -0.033720 0.166520
0.017630 -0.028440 0.165430
0.405740 -0.014300 -0.094130
-0.020140 0.108540 0.117890
0.294200 -0.065110 0.154430
0.328670 0.008650 0.054730
0.331110 0.008690 0.046750
0.332060 0.007800 0.059120
-0.243670 -0.069820 -0.131100
-0.278840 -0.051210 0.131940
-0.168250 -0.075710 -0.116670
-0.231930 -0.077890 -0.116740
-0.180560 -0.069940 -0.116670
-0.223230 -0.087790 -0.116750
-0.207040 0.010290 0.159530
0.130650 -0.012680 -0.048960
-0.412200 0.028570 -0.028150
-0.195590 -0.133170 0.143870
0.281850 -0.134150 0.161620
0.259660 -0.131360 -0.136270
0.222860 -0.105860 0.118430
-0.391690 -0.036110 -0.156430
-0.290340 -0.065160 -0.157140
-0.291300 -0.062400 0.126720
0.394970 -0.004110 -0.051030
0.033260 -0.067880 -0.128250
-0.395020 -0.025320 0.148210
-0.321860 -0.081690 0.052040
0.232780 -0.109100 -0.153460
-0.277180 -0.113400 -0.173820
-0.225540 -0.142930 0.137590
0.412440 -0.060750 0.132360
-0.280110 -0.103400 -0.107710
-0.219620 -0.133030 -0.108910
0.383950 -0.041940 -0.115320
-0.164340 -0.091780 0.110370
0.141880 0.014710 -0.003600
0.145940 0.014710 0.010070
0.178690 0.014710 0.004950
0.404930 -0.064380 0.012330
0.022160 -0.089580 -0.164870
0.105660 -0.090920 -0.160660
-0.375300 -0.089570 0.104270
-0.325670 0.030220 0.144030
0.229370 -0.066780 0.116440
0.216120 -0.007230 0.164280
-0.368750 -0.072090 0.092560
-0.067410 -0.071300 0.153550
-0.335760 -0.042890 0.149070
-0.273510 -0.039320 -0.138520
-0.173890 -0.082550 0.108840
0.219550 -0.080310 0.109070
0.208170 -0.079610 0.109150
0.231150 -0.093410 -0.177920
0.313540 -0.105750 0.181050
0.229150 -0.093450 0.097000
0.419150 -0.102860 0.003160
-0.411450 -0.078280 0.041030
-0.402950 -0.087680 -0.005820
-0.407740 -0.082370 -0.004360
-0.416180 -0.073040 0.044410
-0.174370 -0.088430 0.131820
0.252830 -0.118000 -0.202360
0.263250 -0.038740 0.122520
-0.245240 0.057160 -0.142810
-0.225550 0.080930 -0.134030
0.267590 -0.080640 -0.141530
-0.293160 -0.104310 0.145490
0.267100 0.012240 0.113200
0.259070 0.014130 0.103230
-0.179720 -0.046650 -0.157900
0.390260 -0.042720 -0.123670
0.234700 -0.003930 0.078440
0.205430 -0.102560 0.109710
0.207380 -0.084850 0.128850
0.115820 0.049430 -0.142710
0.346950 -0.053840 -0.161980
-0.296590 -0.059640 -0.147940
0.416480 -0.050540 0.011110
0.265020 -0.089530 -0.159660
0.202660 0.016850 -0.129610
0.209610 0.012970 -0.151740
0.352540 -0.039000 0.066910
0.028160 -0.044650 0.075590
0.037230 -0.044150 0.091190
0.028260 -0.044640 0.093830
0.062510 0.016260 -0.153890
0.047980 0.016300 -0.153950
0.052890 0.020340 -0.152760
0.141010 0.013430 -0.154350
0.370250 -0.079680 0.146530
0.293230 -0.119350 0.168280
0.406860 -0.099580 0.034510
0.184290 -0.046690 -0.174430
0.214350 -0.059790 -0.116180
0.213620 -0.061590 -0.129890
-0.129050 0.001170 -0.176080
-0.169830 -0.007810 -0.178420
-0.285060 -0.055300 -0.115110
0.219010 -0.077920 0.119790
-0.170760 -0.085960 0.154500
0.134390 0.014710 -0.035770
0.144740 0.022490 -0.155480
0.347510 -0.016830 0.008470
-0.285260 -0.056260 0.123520
-0.196510 0.117810 0.096600
0.407430 -0.074660 0.143020
0.301370 -0.077540 -0.067140
0.297060 -0.062380 -0.067140
0.301630 -0.057920 -0.067140
-0.102680 0.004640 0.164650
-0.168660 -0.079930 -0.122540
-0.214070 -0.097770 0.122170
0.311560 -0.095260 0.191130
0.208340 -0.077350 -0.141360
0.141320 0.014450 -0.053380
0.217750 -0.006420 -0.171390
-0.192310 -0.131540 -0.161880
-0.296810 -0.095140 -0.139060
-0.321560 -0.039160 -0.170220
-0.390960 0.003600 0.010020
-0.390910 0.008400 -0.034930
-0.391040 -0.005290 0.026710
-0.391060 -0.007470 0.047750
-0.390960 0.003170 0.052710
0.395030 -0.044550 0.115710
-0.395510 0.006710 -0.155130
-0.391280 -0.020700 -0.115400
-0.391070 -0.005270 -0.080580
-0.391060 -0.005540 -0.073020
0.316380 -0.077650 0.200310
0.307460 -0.044200 0.159620
-0.407180 -0.037930 0.078790
0.348320 -0.026280 0.157530
0.394300 -0.050250 0.145640
-0.177460 -0.084240 0.121940
0.124390 -0.077210 -0.153850
-0.413060 0.002940 -0.091630
-0.172400 0.035640 -0.151200
-0.170730 0.063570 -0.140420
-0.204400 0.039030 -0.148340
-0.185420 0.052450 -0.144030
0.068430 0.018810 -0.164060
-0.029200 0.019510 -0.165030
-0.075610 0.026880 -0.160910
0.268770 -0.006740 0.131090
0.214450 -0.042970 -0.176760
-0.425330 -0.037280 -0.093840
0.155660 -0.015980 0.151310
0.237650 -0.038760 -0.170410
0.264600 -0.012790 0.042690
-0.297990 -0.064960 -0.134680
-0.296130 0.019270 0.153070
-0.032180 0.053770 -0.105830
-0.269350 0.042490 0.086330
-0.301220 0.042080 0.074470
-0.297780 0.041980 0.097010
-0.279750 0.042520 0.058670
-0.013850 -0.007730 -0.044760
-0.317830 -0.061250 -0.172270
0.289370 -0.131090 -0.127890
0.229790 -0.135150 0.156180
-0.170580 -0.083250 0.139920
-0.191400 -0.118670 0.133620
-0.187610 -0.037010 -0.153420
0.120290 0.030230 0.055740
-0.241530 0.074930 -0.134990
0.164890 0.015950 0.152160
-0.235220 -0.000360 0.169480
-0.024820 0.015140 -0.090020
-0.025680 0.021180 -0.075030
0.232830 0.020730 -0.020350
0.221930 0.021450 -0.017580
0.266470 0.018920 -0.010990
-0.281720 -0.121480 -0.141890
-0.397700 -0.091310 -0.139570
-0.237530 -0.018520 -0.165610
0.298710 -0.023630 -0.174570
-0.024480 -0.027040 -0.043920
0.292900 -0.133950 0.163660
0.052730 -0.040180 0.117290
-0.207300 -0.055850 -0.131700
-0.015510 -0.017150 -0.050260
-0.285240 -0.091010 -0.107190
0.306520 -0.045770 0.164760
0.066480 0.098140 -0.121090
-0.296330 -0.058870 -0.163360
0.254990 -0.024410 -0.135950
0.084950 0.000690 -0.171280
0.099860 0.002100 -0.170570
-0.207210 -0.128950 -0.116470
-0.276200 0.075260 -0.038280
-0.237290 0.103200 -0.045840
-0.256250 0.089600 -0.032590
-0.241230 0.100380 -0.034970
-0.267850 0.081250 -0.051840
-0.268910 -0.023210 -0.134670
0.249540 -0.036270 0.134790
-0.143310 0.108560 -0.126080
0.320710 -0.041370 -0.118810
0.165810 0.023460 0.136810
-0.257690 -0.017480 0.162000
-0.231720 -0.045060 -0.131700
-0.247870 -0.024230 -0.128160
0.340750 -0.017240 -0.032180
0.340550 -0.030510 -0.039020
0.340670 -0.022910 -0.002500
0.340540 -0.031380 -0.007300
0.113020 0.046710 -0.150090
-0.288530 -0.102380 -0.165170
-0.228050 0.028310 -0.091810
-0.167610 -0.053420 -0.157140
0.340990 -0.031410 0.021710
0.144420 0.014710 0.142430
0.223300 -0.125220 0.155040
0.128490 0.047860 -0.142950
-0.218000 -0.025080 -0.112750
0.009070 0.120090 -0.080370
-0.058320 0.122910 -0.067010
-0.034590 0.121420 -0.091100
0.026900 0.119200 -0.089560
-0.077820 0.123340 -0.078220
-0.142260 -0.059680 0.168420
-0.280970 -0.110380 0.154130
-0.391270 -0.030290 -0.050310
0.315710 -0.090530 -0.018550
-0.094850 -0.016880 -0.153320
-0.124500 -0.008250 -0.151650
-0.092580 -0.009170 -0.153470
0.307870 -0.123890 -0.124050
0.304390 -0.129830 0.163610
-0.410380 -0.026540 0.056650
-0.192610 -0.115980 -0.115730
0.269830 -0.019100 -0.146330
-0.078940 0.108200 0.119030
-0.125320 0.014000 0.160380
-0.288120 0.006370 -0.169970
-0.191090 -0.027530 -0.171690
-0.189220 -0.028270 -0.155030
-0.187350 -0.105130 0.133260
-0.283490 -0.045570 -0.166250
-0.195860 -0.134110 0.152640
-0.299650 -0.001040 0.127690
-0.297260 -0.013880 0.092760
-0.296570 -0.017620 0.077790
0.269390 -0.068690 0.131590
0.376110 -0.037600 -0.157760
0.328150 -0.076680 0.153560
0.034130 -0.093570 0.159680
-0.010990 -0.093020 0.159450
-0.068540 -0.096730 0.160670
0.296010 -0.018020 -0.118240
0.296640 -0.091060 0.070540
0.231530 -0.025230 0.100500
0.269760 -0.054240 0.087380
0.255810 -0.050080 0.089190
0.295470 -0.068420 0.081010
0.314060 -0.073990 0.078580
0.326830 -0.078780 0.076460
0.308060 -0.094050 0.069250
0.306590 -0.071120 0.079850
0.234880 -0.079960 0.075210
-0.410080 -0.029340 -0.120480
0.321190 -0.005110 -0.111110
0.411590 -0.051850 0.132520
-0.224760 -0.060650 -0.143850
0.067330 -0.066420 -0.132860
-0.238130 -0.087670 0.127750
0.334550 0.004480 0.099320
0.328990 0.004300 0.112310
0.395260 -0.082190 -0.154400
0.247310 0.009540 0.143430
-0.198520 -0.131440 0.167150
-0.285530 -0.088680 -0.118510
0.333110 -0.085260 -0.133790
-0.165810 -0.027300 0.170030
-0.079150 -0.027460 0.165590
-0.098950 -0.011460 0.166620
-0.089540 -0.004590 0.166140
0.369510 -0.067840 0.109020
0.290700 -0.041380 0.109030
0.350670 -0.026240 0.109040
0.332140 -0.056850 0.109030
0.233040 -0.021770 0.109040
0.303140 -0.043110 0.109030
0.407540 -0.008800 0.043420
-0.189730 0.014110 -0.166030
0.316130 -0.017980 -0.142440
0.288810 -0.017190 -0.140320
0.174300 0.017410 0.042470
0.278740 -0.146470 0.155620
0.260130 -0.127150 -0.115860
0.363160 -0.061960 -0.166890
-0.410290 -0.030820 0.082440
0.275920 0.013250 -0.096570
0.278740 0.013610 -0.085270
0.236130 -0.133570 0.124940
0.307430 -0.095080 0.198210
-0.225900 -0.016410 0.167310
-0.229810 -0.008580 0.169880
-0.223020 -0.019090 -0.172280
-0.280450 -0.047560 -0.157960
0.262920 -0.023010 -0.161910
-0.021690 0.000250 -0.056010
0.241200 -0.102900 -0.196690
0.040350 0.106650 0.112320
-0.201860 -0.070530 -0.128730
0.304970 -0.119660 0.193750
-0.198750 -0.131020 -0.112950
-0.270940 -0.124930 -0.164150
0.387390 -0.013090 -0.118370
-0.170700 -0.071500 0.112030
-0.289150 0.036010 0.142610
-0.251980 -0.084840 0.123360
0.124940 -0.087320 0.147640
0.133960 0.065970 0.049200
0.165130 0.042500 0.050730
0.124660 0.072990 0.047490
0.168230 0.041170 0.005510
0.150290 0.053540 0.056000
0.159580 0.046850 0.042630
0.139970 0.061990 0.024600
-0.005160 0.104080 -0.127020
-0.167200 -0.054650 -0.145780
0.300450 -0.024760 -0.126850
0.363540 -0.005220 -0.151380
-0.164000 -0.070550 -0.157830
0.235280 -0.068000 -0.174480
0.234650 0.013660 0.125770
0.233180 0.007760 -0.149810
-0.258820 -0.116250 -0.140550
0.091270 0.086570 0.112430
0.324770 -0.128620 -0.142750
-0.191730 -0.027380 -0.129310
-0.200100 -0.025020 -0.130120
0.327010 -0.006420 -0.129820
0.326320 -0.027340 -0.112710
0.189800 0.020630 0.006600
-0.044290 -0.019110 0.144360
-0.423010 -0.063300 0.081700
-0.422110 -0.063650 0.075910
0.328170 -0.048950 0.134310
0.057310 -0.061310 0.124070
-0.406270 0.009540 0.131530
0.121860 0.029240 -0.180150
0.250830 0.000680 0.159730
0.311560 0.013500 -0.033740
0.293130 0.016240 -0.008790
0.303650 0.014890 -0.012310
-0.395150 0.010240 0.048490
-0.402480 0.010240 0.028170
-0.193860 -0.083370 -0.126950
0.032200 -0.052530 0.120770
0.031790 -0.066120 0.120630
-0.214450 -0.024890 -0.167920
0.312610 -0.125180 -0.118420
0.068730 -0.005860 -0.171540
-0.055270 -0.005150 -0.172170
0.034230 -0.015040 -0.171900
-0.056160 -0.021030 -0.172480
-0.065790 -0.009130 -0.172300
0.025750 -0.008900 -0.171820
-0.189120 -0.119680 -0.151570
0.311400 -0.051740 0.141970
0.303840 -0.054800 -0.097270
0.384230 -0.004940 0.101070
-0.407190 0.009470 -0.149620
-0.272960 -0.115680 -0.113180
-0.011890 0.029450 -0.155400
-0.180900 -0.051120 0.131430
0.019750 -0.034180 0.165650
0.094200 -0.036820 0.165890
-0.060400 -0.036940 0.164660
-0.073110 -0.000160 0.154910
0.207930 -0.080200 0.159840
-0.238160 -0.018100 -0.010050
-0.238190 -0.038230 0.072690
-0.238170 -0.024900 0.078490
-0.238150 -0.015690 0.112490
-0.238160 -0.022020 0.091220
-0.238160 -0.019800 0.003410
-0.238270 -0.077530 0.100430
-0.238250 -0.066200 0.083840
-0.238190 -0.036020 0.105370
-0.238150 -0.014670 0.071340
-0.238180 -0.029350 0.048840
-0.238190 -0.034810 -0.049020
-0.238150 -0.014450 -0.087240
-0.238190 -0.035780 0.019730
-0.238220 -0.051620 0.036320
-0.238150 -0.017330 -0.060300
0.253880 -0.049710 -0.153220
0.283180 -0.031840 -0.191810
-0.303250 -0.002160 0.162840
-0.206100 -0.128440 -0.171370
-0.169680 -0.106620 0.131630
0.284930 -0.034010 0.174690
-0.396640 0.010210 -0.067320
0.313450 -0.084100 0.184610
-0.192410 -0.034410 0.107220
-0.426210 -0.047940 0.064470
0.090190 -0.090710 -0.158400
0.140010 -0.091410 -0.164410
0.214080 -0.053650 -0.094850
0.222720 -0.038970 -0.101620
-0.363010 -0.086910 0.103900
0.408120 -0.046140 -0.016280
-0.296040 -0.042170 -0.162190
-0.174390 0.105030 0.119910
-0.413450 0.010720 0.062590
-0.023970 0.025950 0.110470
-0.225090 -0.037410 -0.128950
-0.160570 -0.077500 0.115080
0.384500 0.001050 -0.017920
0.405670 -0.006310 -0.040540
0.315510 -0.046510 0.140510
-0.026250 0.048020 0.045440
-0.215880 -0.133970 -0.130770
0.278250 0.017330 0.026640
0.300650 0.014270 0.045690
0.387430 -0.109630 0.151560
-0.244000 -0.000460 -0.176300
0.335450 -0.015520 0.133240
0.012230 -0.045530 -0.104690
0.037290 -0.044140 -0.057430
0.253450 -0.024510 0.154850
-0.275740 -0.036430 0.123260
0.413800 -0.057370 0.126230
-0.227060 0.025620 0.057740
-0.230480 0.033980 0.023380
-0.229350 0.031470 0.069100
-0.231050 0.035670 0.055340
-0.161960 -0.105620 -0.174190
0.344040 -0.036600 0.045220
0.268140 -0.084970 -0.160290
0.136750 0.020320 0.026740
0.418640 -0.084960 0.019620
-0.243390 0.088210 -0.123200
-0.400550 -0.063350 0.111690
-0.392050 -0.063600 0.088640
-0.399220 -0.063390 0.117180
-0.307190 -0.106390 0.155600
0.292910 -0.035330 -0.107930
0.413480 -0.104150 -0.095800
-0.188650 -0.120930 0.121590
0.217200 -0.041960 0.169440
0.417780 -0.080790 0.058090
-0.211490 0.033150 -0.147220
0.357010 -0.062510 0.159220
-0.359770 -0.089230 0.068770
0.145700 -0.020920 0.144640
0.384060 -0.043590 0.112530
0.100940 -0.045340 -0.172300
0.143200 -0.045450 -0.172620
-0.168670 -0.103410 -0.170790
0.296630 -0.084600 -0.080990
0.258290 -0.069350 -0.087750
0.243730 -0.046580 -0.098170
0.254680 -0.061130 -0.091530
0.239040 -0.027890 -0.106780
0.308130 -0.086380 -0.080250
0.243420 -0.040420 -0.101020
0.346690 -0.085320 -0.081030
0.278250 -0.073160 -0.086140
0.315660 -0.087810 -0.079650
-0.317590 0.020120 -0.146090
-0.310340 0.029630 -0.146640
0.409740 -0.081460 -0.118670
-0.208450 -0.107550 -0.128730
0.309880 -0.037980 -0.114920
0.310910 -0.037390 -0.122620
0.272370 0.000050 -0.166120
-0.271380 -0.024830 0.156960
-0.175980 -0.102210 0.134640
-0.176030 -0.116630 0.144990
-0.296220 -0.035440 0.164050
-0.226480 0.024290 0.104120
-0.222940 0.015200 0.088640
-0.214480 -0.006460 0.089310
-0.217020 0.000060 0.031930
-0.219870 0.007340 0.092370
0.134110 -0.077520 0.147200
-0.208950 0.113930 -0.109390
-0.307300 0.039020 -0.148360
-0.212510 -0.133090 -0.123510
-0.260860 -0.031160 -0.111650
0.326240 -0.015870 0.065560
-0.006700 -0.108040 -0.146770
0.015690 -0.108380 -0.140640
0.052210 -0.108980 -0.106570
0.015740 -0.108410 -0.125780
-0.046450 -0.107480 -0.125420
-0.019620 -0.107880 -0.125140
0.038170 -0.108780 -0.101390
-0.129310 -0.106260 -0.123000
0.008760 -0.108300 -0.128250
-0.058170 -0.107280 -0.145670
-0.075040 -0.106990 -0.166430
-0.065280 -0.107220 -0.116610
0.149930 -0.110460 -0.088070
-0.068680 -0.107150 -0.128630
-0.094870 -0.106730 -0.144930
-0.075580 -0.107030 -0.139060
-0.009690 -0.108040 -0.119880
-0.032320 -0.107680 -0.132440
-0.124120 -0.106330 -0.124920
-0.048350 -0.107420 -0.146590
-0.096000 -0.106740 -0.131920
-0.023170 0.027460 -0.114650
0.303820 -0.026060 -0.133610
-0.022220 -0.034280 0.114080
-0.190880 -0.049250 0.133460
-0.409580 -0.007660 0.133130
-0.409670 -0.006520 0.113950
-0.144510 0.031360 0.149870
0.230020 -0.122060 0.136170
0.300020 -0.133850 0.175590
-0.179470 -0.054320 -0.128120
-0.182970 -0.038110 -0.116650
-0.305440 -0.004930 -0.067650
-0.316780 0.028400 -0.083920
-0.306060 0.002810 -0.080470
-0.306170 0.008760 -0.092010
-0.318560 0.029410 -0.077960
0.251840 -0.143330 0.163930
0.404420 -0.078840 -0.024660
0.240270 -0.099990 -0.207070
-0.367220 -0.108510 0.096810
0.254770 -0.092390 -0.164820
0.311460 -0.079080 0.209460
0.229690 -0.091590 0.123110
0.130570 -0.077520 -0.155580
-0.287960 -0.059590 -0.123940
-0.193950 -0.097360 0.018360
-0.188210 -0.098870 -0.001950
-0.246370 -0.083560 0.073940
-0.179520 -0.101160 0.036100
-0.270550 -0.077200 0.090280
-0.205860 -0.094230 -0.028390
-0.175850 -0.102120 0.019700
-0.182050 -0.100490 -0.071970
-0.183650 -0.100070 0.073830
-0.162500 -0.105640 -0.092360
-0.225370 -0.089090 0.022590
-0.269640 -0.077440 0.098990
-0.195130 -0.097050 0.033040
-0.270100 -0.077320 0.072510
-0.228060 -0.088380 0.081000
-0.261510 -0.079580 0.101080
-0.171900 -0.103160 -0.081570
-0.203730 -0.094790 0.032970
-0.182140 -0.100470 -0.048240
-0.214090 -0.092060 0.004340
-0.182770 -0.100300 -0.012900
-0.278380 -0.075140 0.086240
-0.204520 -0.094580 0.065200
-0.183630 -0.073410 -0.127520
0.031060 0.027280 0.152360
0.352300 -0.004730 -0.099190
-0.369870 -0.063890 -0.132370
-0.350670 -0.064250 -0.121900
-0.061840 0.067920 -0.136700
0.387790 -0.041030 0.070810
-0.123480 0.123740 -0.043780
-0.111130 0.123870 -0.039730
-0.093430 0.124050 0.010120
-0.153230 0.123440 -0.034460
-0.160670 0.123370 -0.029910
-0.109780 0.123880 0.014760
-0.119650 0.123780 -0.016860
0.240540 -0.138910 0.139580
-0.177070 0.120410 0.093800
-0.146680 0.121040 0.092070
-0.110220 0.122320 0.087130
0.158700 0.010340 -0.091720
-0.193040 -0.026750 0.166550
-0.215050 -0.014390 -0.141020
-0.201480 0.097950 -0.121800
-0.221590 0.073140 -0.130220
0.336260 -0.045990 0.027140
0.122220 -0.087900 0.159880
0.115800 -0.077940 0.162810
0.037750 -0.085840 0.159590
0.045410 -0.082300 0.160740
0.328780 -0.048520 -0.146390
0.395880 -0.024060 0.102760
-0.245020 -0.141360 -0.150680
-0.162700 -0.073870 0.131950
0.263040 -0.063840 0.143480
0.319230 -0.103510 0.167650
-0.164300 0.108700 -0.121060
0.287580 -0.115560 0.153630
-0.263820 -0.090240 0.136300
-0.273000 -0.067540 0.047400
-0.273000 -0.084080 -0.020650
-0.273000 -0.087780 -0.011210
-0.263260 0.042810 -0.000490
-0.252530 0.042960 0.033910
-0.282000 0.042540 0.009440
-0.240540 0.043130 0.005200
-0.259710 0.042860 -0.017980
-0.311180 0.042130 -0.006190
-0.265000 0.042780 -0.012980
-0.279600 0.042580 -0.003580
-0.261740 -0.126460 -0.157970
0.204250 -0.110150 -0.018730
0.202800 -0.089140 -0.007680
0.202220 -0.080750 0.025280
0.200940 -0.062410 0.043220
0.201820 -0.074990 0.041060
0.201930 -0.076620 0.072300
0.200860 -0.061170 0.035960
0.198230 -0.023260 0.100990
0.203720 -0.102420 0.068970
0.200230 -0.052180 0.087910
0.198810 -0.031600 0.083930
0.198750 -0.030810 0.099260
0.201560 -0.071320 0.005460
0.314250 0.011150 -0.057510
0.274420 0.015580 -0.060050
0.323900 -0.097370 0.170830
-0.266920 -0.026920 -0.112860
0.305070 -0.017660 -0.121250
0.294000 -0.017320 -0.125500
-0.077880 0.006980 -0.171510
-0.217840 -0.020940 0.113930
-0.157140 -0.029820 -0.177040
0.044010 -0.009700 0.164290
-0.036600 -0.025130 0.165010
-0.069930 -0.004270 0.164780
-0.057180 -0.003360 0.164690
-0.032070 -0.002830 0.164550
0.032000 -0.010690 0.164370
0.333390 -0.061300 0.120080
0.339790 -0.076240 0.119580
0.396670 -0.008320 -0.107480
0.270400 -0.020230 0.012930
0.298730 -0.091590 0.210290
0.335980 -0.004690 -0.159370
-0.356910 0.014600 -0.157760
0.175590 -0.073700 -0.173650
-0.027760 0.038020 -0.088340
-0.206500 0.088030 0.125720
0.328510 -0.016060 -0.118370
0.389340 -0.081870 -0.142100
-0.181730 -0.106930 0.152540
0.034350 0.002030 0.147390
0.207270 -0.085630 -0.138280
0.206550 -0.090460 -0.157510
0.291510 -0.108780 0.166910
0.391860 -0.028370 0.101580
-0.289630 -0.085960 -0.113950
0.261360 0.000710 -0.146690
0.280670 -0.035410 0.138740
-0.014310 0.103300 -0.122630
0.110980 -0.071560 -0.152130
0.061490 -0.048980 -0.152130
0.133460 -0.001610 0.004730
-0.202060 0.119580 0.080340
-0.381130 -0.010960 -0.158310
-0.375700 0.019800 0.146660
-0.179220 -0.108050 0.125460
0.322550 -0.112180 0.163390
-0.279880 0.020370 0.152870
0.339100 0.004170 -0.101750
0.325070 0.004870 -0.120300
-0.215940 0.066450 0.131190
-0.290230 -0.068320 -0.150040
0.398070 -0.060500 -0.096760
-0.232090 0.040690 -0.146560
0.168670 0.035100 0.094870
0.109630 0.083020 0.059500
0.175500 0.033560 0.067780
0.127340 0.068760 0.069230
0.123130 0.073240 0.058410
-0.245480 -0.140330 0.165860
0.123530 0.052870 -0.140610
-0.257030 -0.138330 -0.143300
0.305680 -0.132780 0.171530
0.321800 -0.123780 -0.129100
-0.065330 -0.075760 -0.154840
0.303170 -0.050000 0.173780
0.339660 -0.049650 -0.167460
-0.252620 -0.024040 0.156450
-0.380070 -0.075920 0.072000
-0.403480 0.006030 0.049640
0.253110 -0.079120 0.121790
-0.051660 -0.088390 -0.155960
-0.036690 -0.088680 -0.163310
0.394220 -0.010480 -0.137980
-0.078260 -0.011430 0.165250
0.161140 0.020630 0.036830
0.058620 0.113820 0.092960
0.281990 -0.021790 -0.169280
-0.092570 0.094460 -0.129310
-0.094960 0.040820 -0.151580
-0.096110 0.075340 -0.137220
-0.122260 0.081190 -0.134590
0.240740 -0.004930 0.085670
-0.180450 -0.023480 0.129070
0.082020 -0.053120 0.077690
0.080000 -0.060120 0.114620
0.079950 -0.060300 0.107390
0.309590 0.002620 -0.156930
0.301060 -0.005370 -0.095470
0.238710 -0.073080 0.091870
0.268400 -0.141850 0.122340
0.269940 -0.103710 0.139680
0.365310 -0.079110 -0.012120
0.365290 -0.079230 0.046080
0.364790 -0.083700 0.020840
0.364370 -0.087310 -0.040310
0.363980 -0.090750 0.066050
0.365130 -0.080720 -0.026600
0.366190 -0.071390 0.073470
0.368130 -0.054340 0.043500
0.263270 -0.015730 -0.134410
0.191190 0.018950 -0.046510
-0.426270 -0.049730 -0.036910
0.186730 0.024800 0.097570
0.219500 0.003890 0.073100
0.219270 -0.011300 -0.016480
0.219260 -0.011950 0.010590
0.219410 -0.001900 0.039600
-0.050220 -0.031420 0.147780
-0.203900 -0.028950 -0.130150
-0.281970 -0.094760 -0.111640
0.304900 -0.114580 -0.117190
-0.009280 0.110410 0.115040
-0.042790 0.112420 0.114000
-0.268030 -0.035470 0.109160
0.319780 -0.040070 -0.164000
-0.217890 -0.019310 0.165070
-0.408240 0.009630 0.125310
0.257370 -0.133630 -0.155820
0.406150 -0.024270 0.057310
-0.234040 -0.021990 -0.118360
-0.047000 0.120160 0.093310
0.004200 0.116750 0.101400
0.270650 -0.140890 0.130550
-0.255100 -0.016500 -0.155160
-0.142790 -0.080520 -0.175940
-0.150010 -0.070820 -0.176210
-0.288000 -0.070920 -0.138520
-0.313600 -0.046480 -0.159520
0.392750 -0.003580 0.045330
-0.408880 -0.037030 -0.007160
-0.412110 0.014810 0.121540
0.288110 -0.054730 -0.137540
0.273740 -0.032000 0.097790
0.351070 -0.029270 0.100190
0.315060 -0.026970 0.100770
0.265760 -0.028170 0.099500
0.246570 -0.017070 0.104480
0.311470 -0.048460 0.090540
0.282930 -0.022880 0.102240
0.333160 -0.050250 0.090000
0.344100 -0.076610 0.077670
0.275270 -0.021120 0.102970
0.175990 0.032070 0.079240
0.284300 -0.028020 -0.163580
0.264380 -0.010860 0.137200
-0.310050 0.030680 0.111300
-0.297420 -0.021560 0.062700
-0.313820 0.015770 0.064300
-0.304390 0.009010 0.093050
-0.298610 -0.016290 0.067980
0.087100 -0.096920 -0.168320
0.016270 -0.104020 -0.170690
-0.410650 0.031740 0.136610
0.138440 0.003010 -0.136180
-0.246780 -0.140760 0.156160
-0.285540 0.030290 -0.153550
-0.293980 -0.060470 0.113510
-0.334240 -0.094960 0.089720
-0.227260 -0.012310 -0.144490
0.261170 -0.127140 -0.183770
0.234500 -0.117480 -0.161000
0.223240 -0.097580 -0.148440
0.310960 -0.074820 0.153640
0.316940 -0.094160 0.000730
0.226250 -0.013020 -0.176340
-0.244680 -0.141980 -0.139890
-0.381170 -0.077790 0.102860
-0.377490 -0.051470 0.142560
0.261560 -0.031640 -0.156500
0.275210 -0.053150 -0.156240
0.343350 -0.040530 -0.116120
-0.196040 -0.122490 0.118210
-0.284270 0.042440 -0.066840
-0.306090 0.042070 -0.072150
-0.298430 0.042170 -0.075010
-0.273750 0.042610 -0.066820
-0.181050 -0.112090 -0.136240
0.315140 -0.069950 0.167810
-0.221550 0.015430 0.112430
0.087190 0.069990 0.127430
-0.206390 -0.024490 0.126930
-0.025450 0.012830 0.146330
0.324970 0.009050 -0.065450
0.324100 0.007850 -0.083730
0.310770 0.009820 -0.085570
-0.192220 0.027500 -0.158040
0.222510 -0.083540 -0.178700
-0.170600 -0.108330 -0.121560
0.281040 -0.010540 0.108600
-0.387800 -0.075850 0.081790
-0.034710 0.030640 0.041220
0.205840 -0.082370 0.133500
-0.308990 -0.084650 -0.060280
-0.229050 -0.012300 -0.130650
0.094560 0.096070 -0.015830
0.090750 0.098730 -0.040230
0.104330 0.088640 -0.036980
0.098790 0.092770 -0.036650
0.160330 0.047110 -0.012780
0.109150 0.085260 -0.008230
-0.377410 0.028790 0.141520
-0.179770 -0.037140 0.138090
0.049440 0.113030 0.105590
-0.243220 0.037510 -0.151150
-0.413520 -0.075020 0.059650
0.224790 -0.003630 -0.118470
0.359520 0.000580 -0.105210
0.322640 -0.055550 0.135290
-0.119970 -0.037110 -0.004530
-0.165220 -0.103190 0.109260
-0.234050 -0.086700 0.109300
-0.195300 -0.090810 0.109270
-0.165940 -0.077570 0.109220
-0.196210 -0.029570 0.140830
-0.384350 -0.107380 0.098800
-0.147520 -0.105980 0.160720
-0.124670 -0.106300 0.140760
-0.146470 -0.106000 0.154210
-0.089970 -0.106780 0.151600
-0.141060 -0.106070 0.149280
0.277040 -0.096000 0.142760
0.198100 0.007070 -0.034140
0.198000 0.001890 -0.057870
0.086280 -0.109470 -0.171400
-0.204080 0.119490 -0.076600
0.245560 -0.044330 0.102370
-0.069520 -0.056460 -0.162230
0.389740 -0.037520 0.081290
0.373450 -0.001600 -0.093260
-0.025190 0.017720 0.096050
-0.363540 -0.054870 -0.166630
0.252390 -0.037750 -0.189760
-0.284490 0.047830 -0.141350
-0.277110 0.060160 -0.134180
