ply
format ascii 1.0
element vertex 691
property float x
property float y
property float z
property uchar red
property uchar green
property uchar blue
end_header
-2.610982424446344 0.9796382579750402 8.016388558217793 255 255 255
0.6288554083765261 0.9501239793658958 4.935879274473276 255 255 255
-0.9459715730405206 0.8572928500662739 4.574820420265385 255 255 255
0.020026158115769122 -1.4505940296789508 5.762133079932207 255 255 255
-1.7775164091224138 -0.2922415900472235 7.399682534189218 255 255 255
0.6085261672440263 0.9497446028206398 4.950122964416234 255 255 255
0.2209508979282269 0.46658707748013367 4.90564332586499 255 255 255
-0.41048575817587013 0.3417659557059428 5.607743907956174 255 255 255
-2.0131033529538143 -0.9418271846559507 7.695568674122329 255 255 255
-1.186768468015804 0.11236918957992752 6.564947566185246 255 255 255
0.21590413020862104 -0.9124458556749576 5.522621604112791 255 255 255
-0.6666556479316821 0.3030998274055333 5.757321032321483 255 255 255
-1.6609628191179293 -2.515350630121335 7.537175671793338 255 255 255
-1.954167172009967 -0.9447839132491409 7.6223816885589155 255 255 255
0.5361564343562454 0.19026199820070222 5.103170180695054 255 255 255
1.079539391728463 -0.08122394324158413 4.576340877015964 255 255 255
-0.5311881453201057 -2.0381646439323062 6.260285070699762 255 255 255
-2.0203386361270175 -1.1793318609445629 7.722376646387597 255 255 255
0.8069598117879672 0.5761792298588457 4.758318502043949 255 255 255
0.9864085656178082 -0.9784335915075233 4.764185447403361 255 255 255
0.8164790222874689 0.15620532646560528 4.831836884921749 255 255 255
0.74404485249096 1.1131729966530857 4.819064197406326 255 255 255
0.806888983684657 -1.7585456572479008 5.030261347309084 255 255 255
1.2078915692263739 -1.0364055697877115 4.538844548239516 255 255 255
0.6855835059799852 -1.1358979525061519 5.076323015161145 255 255 255
-0.03360504000764508 -1.9194671308712248 5.863944367180875 255 255 255
0.6369746392302301 -1.5271781933867985 5.169882350752902 255 255 255
-0.8195303413929869 1.044531519912665 4.573221882655556 255 255 255
-0.5048550758533393 1.078421786692823 4.747826731933799 255 255 255
0.22922196440253648 -1.937943825222092 5.61809424574507 255 255 255
0.22495198978597442 -1.6738988338786218 5.589875658146371 255 255 255
-0.9627277296528776 1.1033887677500973 4.5573998919994105 255 255 255
0.4138576493415927 -1.2242873185606884 5.353898330406959 255 255 255
0.7057061151997293 -0.9705018869926572 5.0490137164200855 255 255 255
0.7227281787951336 0.9164121080375417 4.851833924479315 255 255 255
0.09851318076215075 0.7194406127400271 4.825415873748749 255 255 255
-1.8492118637858557 0.604981347775139 7.384321657067 255 255 255
1.2060887276073669 1.2515395160363523 4.186315433140898 255 255 255
-1.2529058622741165 0.4383109206052969 6.561376653895456 255 255 255
1.1212011701151203 -0.26569881434900827 4.569243815003091 255 255 255
0.7624033242702843 -1.562001197520347 5.04999806619447 255 255 255
0.8119719638580231 -1.7282940128227133 5.022080213674579 255 255 255
-1.637706317848028 -0.4562369715168478 7.278309280808677 255 255 255
1.0553206751004802 0.8811751102558857 4.507461233364977 255 255 255
-2.6260448024361502 0.7825414932062688 8.049011089952646 255 255 255
0.3262435303850346 -1.6792320239244898 5.497294091989594 255 255 255
0.24229355424211801 1.3343661730803356 4.169607494152202 255 255 255
-1.75444148810171 -2.0456099290848346 7.562472127948806 255 255 255
0.8017682062317033 1.1722599124499675 4.715072011683352 255 255 255
0.5782616651207578 -0.7181986019693962 5.143369525605461 255 255 255
-0.7446698506946151 0.006188034548644123 5.871301709808902 255 255 255
-0.9453610307979698 1.1291171643899751 4.555209677991821 255 255 255
-1.9319597559729687 0.08157625354670764 7.502863714768629 255 255 255
0.2941234428745258 -1.1014062597737213 5.4642741288542505 255 255 255
-0.48316846743611436 0.34987303858779867 5.67689368838381 255 255 255
0.8645060574637451 -0.39883318119755734 4.833994271038088 255 255 255
-1.0728760802262556 0.8926673482574855 5.860724158323566 255 255 255
0.6488968376619638 0.3191453030034698 4.976271166812582 255 255 255
-0.39192529930144326 0.186358960046094 5.598365911014034 255 255 255
-0.1867704501063714 1.2771207506581597 4.951129780781433 255 255 255
0.2686529606650068 -1.4765678187239861 5.526486465762643 255 255 255
0.9489681037258393 -1.5843230047395707 4.866578947479335 255 255 255
-0.4783992827211295 -2.067741058448383 6.205411524913271 255 255 255
0.14347345394050998 -1.9361152801912993 5.695134453201307 255 255 255
-2.1268426655519805 -0.05609444642459922 7.705971615082131 255 255 255
0.7263262213526802 1.1836417957087957 4.794156713811501 255 255 255
0.7887977594011116 0.7642354099298606 4.784372510045141 255 255 255
0.7710836334229866 -0.13330056546772157 4.89666754227252 255 255 255
1.2243755070123867 -0.2541199378472277 4.441994148578707 255 255 255
-0.7392388154547669 0.3330553742842825 5.719853314670291 255 255 255
-1.3799528486463295 -2.410124469383195 7.239493354408793 255 255 255
0.8155573725818638 -1.0855389734220822 4.948405914973202 255 255 255
0.3863012938167548 -1.7769976523887507 5.435842428434522 255 255 255
-2.626421056504447 -1.1238313697166542 8.247285075463935 255 255 255
-0.01759221109463394 -1.9213647047392841 5.8415126934526755 255 255 255
0.6494439564337562 -1.4156784778042848 5.1426206946260375 255 255 255
0.8693209702156901 -1.7215078129962829 4.959401228366658 255 255 255
0.7405119004851496 -1.5568569449476417 5.076181668111619 255 255 255
-1.8164307094940237 -1.6926220895360444 7.589204591277725 255 255 255
-0.9639538139127894 0.4064609107383028 6.146008725898668 255 255 255
0.4896118587735751 0.5984510234388606 5.083574318263115 255 255 255
1.0392260451700437 1.1189412471340219 4.524317569040771 255 255 255
0.5870948534513334 -1.5178034060167034 5.209884283123142 255 255 255
0.22454884803064334 -1.2057008754348064 5.550011363229815 255 255 255
-0.8856550719534371 1.0370868152217578 4.566935976438452 255 255 255
1.1486510533772896 1.0900283726771758 4.393007168126053 255 255 255
1.1782575565920101 0.7295802711075021 4.390131994793084 255 255 255
-0.41048575817587013 0.3417659557059428 5.607743907956174 255 255 255
0.5542584211171149 -0.22225452664594134 5.1147948209906176 255 255 255
0.9978098616149034 0.4176053915810775 4.612287294445752 255 255 255
-0.5031187903300608 -1.9222814590186537 6.220703763978881 255 255 255
0.36873443724103633 -0.6737383075788423 5.328157691630167 255 255 255
1.095500687842358 -0.6064160118541521 4.617841554281432 255 255 255
0.6654360038231467 1.1273032717967497 4.880055823210009 255 255 255
0.8158662939797868 -0.9609233995634401 4.952411877063538 255 255 255
0.5765883877278329 0.532134082928881 5.012238071806938 255 255 255
-2.1032513825327377 -0.065059406309046 7.698632856979449 255 255 255
-1.222670318296838 0.5145968512533399 6.560135796541885 255 255 255
0.1270269503289071 -1.0207164718124742 5.619695031800957 255 255 255
-0.47992149773742915 -2.0785759105116277 6.204350554524591 255 255 255
0.9081192479684886 -1.2585368230114158 4.873086048952155 255 255 255
-1.606131121749335 0.7947305892032217 6.480214262376697 255 255 255
-0.03360504000764508 -1.9194671308712248 5.863944367180875 255 255 255
0.8364458149507714 -0.7707174574155721 4.890494807810609 255 255 255
-0.9485797720669968 -0.8179321977778912 6.073275010193264 255 255 255
0.8078370301549179 -0.7754795444071135 4.935206121558924 255 255 255
-1.2982543415996046 0.9381358206802719 6.068129936822574 255 255 255
0.824346131349066 -0.5925128364411001 4.896744758732171 255 255 255
0.33474989898341 -1.514504364890489 5.463348331786453 255 255 255
0.7057061151997293 -0.9705018869926572 5.0490137164200855 255 255 255
0.08653976152551583 -1.01769672147751 5.647293112630162 255 255 255
0.8602179684327026 0.8521322285888338 4.698238912647943 255 255 255
0.7170538161340839 -0.23200923168662327 4.980091400762776 255 255 255
-0.7916437767990939 -0.43616660653264255 6.058338292601088 255 255 255
-1.9520743520332688 -1.882040310536224 7.7266079806257695 255 255 255
-1.9520743520332688 -1.882040310536224 7.7266079806257695 255 255 255
0.0654235630018452 1.0647125288624808 4.810116412328914 255 255 255
0.1753870581716102 1.2087582038281732 4.668189254467502 255 255 255
-0.11721802725396817 -0.7090850627129784 5.420966618756078 255 255 255
-0.9816097132034473 0.829103904898591 5.877860327602484 255 255 255
-0.0035250122143470233 -1.7746696454632573 5.838645015568136 255 255 255
-0.6685327425505935 -0.5403616296751308 5.936643485406835 255 255 255
-0.01585176490483434 -1.7901307183396138 5.854454696656318 255 255 255
-0.24137549394331112 -0.3332121503800874 5.669275532237332 255 255 255
0.6726827233976888 -1.0902131165873648 5.094884212697289 255 255 255
-0.06759582723859896 0.6897776707230573 4.99606200230854 255 255 255
-0.5821483776411898 0.3471885463146354 5.685500899423644 255 255 255
0.21092151622839725 -0.8943783101324101 5.531839856383429 255 255 255
0.7659005166787215 -1.4812841016082308 5.030213637600409 255 255 255
-0.6949673012473426 0.30604201356403166 5.730760664101093 255 255 255
0.7909369030019271 -1.5673946625870387 5.023421324926342 255 255 255
1.1978178535048682 -0.24925267021079517 4.468897031442443 255 255 255
-0.08683385250303899 -1.8970076139742829 5.9201633976318195 255 255 255
-0.0952075530527135 -1.912620557133562 5.932171722173539 255 255 255
1.1999451878148613 1.0821295396037034 4.3451281830644515 255 255 255
-1.4964763856543595 0.7234430986284524 6.383627509168079 255 255 255
-0.17079360455605855 -0.004306138617460807 5.570553825630575 255 255 255
0.7134331939975528 -1.1497632952043804 5.058346801534982 255 255 255
0.4731085215283846 -0.5362331508151427 5.228203569783764 255 255 255
1.0308665750059642 -0.7859210807892113 4.696219426133396 255 255 255
0.2996882316562753 -1.497525409111349 5.501965237251491 255 255 255
-0.7551463865546432 0.32017633874946666 5.731659370311433 255 255 255
-0.855697054154597 -2.3593051185286886 6.727299822600173 255 255 255
-1.675572915009575 0.8519766150396756 6.549260702370324 255 255 255
-1.530376200706431 1.1401780420109588 4.920448762209148 255 255 255
-0.7157374894066983 0.8056912018304597 5.61970763183889 255 255 255
-0.4370972539065922 -2.082852715382855 6.157050850594035 255 255 255
-0.9628835636972751 1.0369993588453161 4.565448116903984 255 255 255
0.3537298534375779 -1.7608566629821696 5.469641704261518 255 255 255
0.4168028410211472 -1.818017560609284 5.408173560433947 255 255 255
-0.191379792717611 1.2577257933985764 4.959616187867773 255 255 255
-0.7784906551801678 -1.963288086081908 6.6153221327664795 255 255 255
-1.5643874482887474 1.3740079200957869 4.721190965989506 255 255 255
0.6631562330296418 0.46744479808106915 4.933134760128233 255 255 255
0.7771688123911457 0.2907258972868527 4.854507300917809 255 255 255
-0.855697054154597 -2.3593051185286886 6.727299822600173 255 255 255
-1.594534821958896 -0.322857626500008 7.229130552167141 255 255 255
-0.06824249529705778 -0.15520424591091025 5.489130159290082 255 255 255
-1.7775164091224138 -0.2922415900472235 7.399682534189218 255 255 255
1.0085893439351106 0.4297271717254823 4.612498197606571 255 255 255
1.1170773117040529 -1.0082978594905545 4.631819899591218 255 255 255
-1.144476430028231 0.7988517833168317 6.041453287360985 255 255 255
0.8157261129656027 -0.7753354891149233 4.910683490919281 255 255 255
1.240885408912558 1.3542702570052796 4.1329365301948515 255 255 255
-0.5921682456281813 0.3170267977133048 5.691366781938769 255 255 255
0.2758080829210069 -1.9422721272558363 5.567628422056542 255 255 255
-0.8996159759521046 1.1296373289114594 4.558698128445304 255 255 255
1.1360046446746257 1.0931537927068025 4.409810208065021 255 255 255
-0.8060511481666282 0.683372863757633 5.717747387021039 255 255 255
0.5411411845685006 0.4844744825097973 5.070180746536702 255 255 255
0.9251713691966693 -1.5824589910495954 4.900194424393418 255 255 255
-1.208558777480526 0.48441141932386805 6.553694172527507 255 255 255
-2.152594319861724 0.6672565749089249 7.671115732319269 255 255 255
-0.11362888673183749 -0.051525907944041646 5.512504694007856 255 255 255
0.5848183897965812 -0.001468847737144489 5.047687102917246 255 255 255
1.0442430257248292 -0.8252790027079298 4.697900534256667 255 255 255
-0.36349579883411093 0.7695042706290223 5.280966498363794 255 255 255
0.1777534274652296 -1.9275059206773764 5.6581997190191595 255 255 255
0.6115085133229795 -0.7246389140346046 5.120875511225532 255 255 255
-0.5083775946244756 -1.9034664595299486 6.228733767800989 255 255 255
0.6571511062659887 -1.724974683678005 5.177845589076317 255 255 255
-0.14808194029808755 -1.6234568634824815 5.945428374208981 255 255 255
-0.7767142366324066 0.6879726111747587 5.691511898567286 255 255 255
0.602944278167815 -0.2275797673427411 5.067277697224111 255 255 255
-1.0063562147178018 1.060131938332494 4.556022809219936 255 255 255
0.8378188950955312 -1.1316988023102348 4.927222514773913 255 255 255
-0.07268929550252677 0.08702566300421441 5.445328626730202 255 255 255
0.4325130114600125 -0.6930799525234759 5.28548273307237 255 255 255
-2.1588661766640316 -0.7791008867799238 7.81067827238301 255 255 255
0.477739291213853 -1.7012919575499676 5.346603251449434 255 255 255
-2.1326647004289923 -2.7787172412047467 8.010929879838315 255 255 255
-1.6452540784892518 1.3786374487252744 4.73940334376834 255 255 255
0.6984444250710198 -0.10352720306813404 4.968866245234238 255 255 255
-2.0817330561213483 -0.41537864865851326 7.708996390512119 255 255 255
-1.0728760802262556 0.8926673482574855 5.860724158323566 255 255 255
0.7748720408126829 0.35024005422969057 4.833773824937455 255 255 255
0.6516510121703258 0.47058747394653955 4.94647486397253 255 255 255
1.311220438793682 -0.8186657789013684 4.431514236309644 255 255 255
0.8250556345774263 -1.171453805705361 4.952074514113038 255 255 255
1.0413472545670852 0.887781698692652 4.536723384631188 255 255 255
-2.014739405125487 -1.6674722499997263 7.777506885079324 255 255 255
-0.2619429537393169 -2.1507334575594212 6.116640579366299 255 255 255
1.15055566924124 0.2067218703243649 4.476559887464158 255 255 255
0.7588634216069949 0.8008403840987847 4.800516201769483 255 255 255
0.17291594874808142 -1.4844911109275971 5.624457010971395 255 255 255
-1.7380230100906304 -1.5699223451230258 7.485087190731712 255 255 255
-0.5058622017446749 0.6616671108872406 5.437971053399929 255 255 255
-0.5113050221500652 -1.988298906573288 6.235001740591096 255 255 255
1.1299265519267179 1.3499481879830755 4.259082450795964 255 255 255
0.8859853927544379 -1.6516655744812507 4.9321372815820546 255 255 255
0.22922196440253648 -1.937943825222092 5.61809424574507 255 255 255
-1.9832125968452647 0.7720202173671001 7.475942481204381 255 255 255
1.1142598913006114 0.25452187417990046 4.524672744192885 255 255 255
0.21590413020862104 -0.9124458556749576 5.522621604112791 255 255 255
-0.6953688509021837 0.772565378910008 5.60437283317581 255 255 255
-1.8790530964839254 -1.6755121526970984 7.643015971076105 255 255 255
0.7222992543824196 0.29782790540577614 4.894515415340823 255 255 255
-3.080543310666019 1.6348692185726608 7.769888700057389 255 255 255
-0.867399055121409 -0.3281719437694932 6.103456294093584 255 255 255
0.4168028410211472 -1.818017560609284 5.408173560433947 255 255 255
0.6705370422369307 -0.7487591750683148 5.066723567938571 255 255 255
-0.7192702137616539 0.29497918569458215 5.728296314869551 255 255 255
0.7001237660640172 -0.14188508236188882 4.9671467546441415 255 255 255
-0.5996278484365128 0.3501189192121005 5.678756247833627 255 255 255
1.0442430257248292 -0.8252790027079298 4.697900534256667 255 255 255
-1.6943912330930766 -1.570239900928325 7.457596475392137 255 255 255
-1.9801133341703774 0.8967497093140439 5.326236263333894 255 255 255
0.046792369812489056 -1.2904830353652998 5.719782762469543 255 255 255
-2.2394082120965826 -0.3935827062022632 7.847968952310011 255 255 255
0.16241275620742643 -1.2684829589120024 5.589857444323049 255 255 255
0.6974044630029022 -1.0801182824362985 5.061851622911441 255 255 255
-2.0007153494072374 -1.8818984691737815 7.78228556819675 255 255 255
-0.2142668647769833 -2.0086902117848577 6.055002178083441 255 255 255
-0.15779353523710468 0.7180797563283149 5.079914925673574 255 255 255
-2.1641627831474377 -1.8470157934963993 7.932183308251188 255 255 255
-0.07268929550252677 0.08702566300421441 5.445328626730202 255 255 255
-0.9716723434311779 -0.8226931184660465 6.088047547059749 255 255 255
0.2564916024398399 -0.6877452836123431 5.455529215913758 255 255 255
-0.5455816195368874 -2.1205320852618943 6.2864314688484155 255 255 255
0.6579030770074612 0.4914539657430174 4.931570565075521 255 255 255
-0.7207821891413411 0.3231723051483429 5.722075825967117 255 255 255
-0.9168748947919885 -2.2720874486939344 6.774674500836855 255 255 255
1.160642042634361 -1.6110361885740985 4.663618923832349 255 255 255
-2.014739405125487 -1.6674722499997263 7.777506885079324 255 255 255
0.8421964862861072 -0.39803814860769493 4.859355003462728 255 255 255
-1.9460868334706578 0.49145970867594685 7.491676477080992 255 255 255
-2.148614727186094 0.05481072675199979 7.719901127037792 255 255 255
-1.7938305855088867 -1.0524428127910046 7.499347107796462 255 255 255
0.5655179478964013 -1.2525139967211083 5.20635606148668 255 255 255
0.06086256711510061 -1.15099417665934 5.6939471329718705 255 255 255
0.6507479881582688 -0.1135951901206072 5.00593272211569 255 255 255
-1.7010176685583762 -2.1391525757636027 7.527557826110349 255 255 255
-0.5983809960102955 -2.0069587671062923 6.332163303770898 255 255 255
0.7793100446897673 0.1590738497748793 4.869887596003074 255 255 255
0.5655179478964013 -1.2525139967211083 5.20635606148668 255 255 255
-1.4186559163648416 -1.7403010424735923 7.207642967179181 255 255 255
-0.4997090507927904 -2.0141144589895212 6.229385813834257 255 255 255
0.6913736633075551 -1.7231807031948623 5.136065979742787 255 255 255
-0.7617077812505558 -2.037439097242636 6.598038016963686 255 255 255
-1.5459342954930528 -1.7389082577402253 7.3393287637428015 255 255 255
0.9959265499773893 -0.7994021447865222 4.728984984527959 255 255 255
0.5639693026530668 -1.7174444633598072 5.263752716677028 255 255 255
0.6415201882340439 1.3819614766275004 4.711782115423768 255 255 255
0.9251713691966693 -1.5824589910495954 4.900194424393418 255 255 255
0.6880160101263838 0.6277936583167664 4.897946540257511 255 255 255
-0.48208257335175564 -2.1071189837482662 6.204073312078237 255 255 255
-0.0851053875510648 -1.6343356890596283 5.8943024926131615 255 255 255
-3.4281120589984706 -2.927348022579271 8.729893416095942 255 255 255
0.5861646211451453 -1.0743348842627682 5.170405490547845 255 255 255
-1.3799528486463295 -2.410124469383195 7.239493354408793 255 255 255
-1.3766532201211044 -1.8546055359069378 7.174953373773517 255 255 255
-3.0965732056918607 1.6226619214633708 7.804089194739097 255 255 255
0.5694188956352672 1.1023164706314024 4.984399001912043 255 255 255
0.693736889156103 -0.2174045214414501 5.004585415402432 255 255 255
-0.42636008811636084 0.4281844915795206 5.614047461113895 255 255 255
-0.4703142408403382 0.12433647263747645 5.685718487084968 255 255 255
1.0086496303488748 -0.9724370661719145 4.743285144500492 255 255 255
-2.1629690944114044 -1.176441907310556 7.855623260262374 255 255 255
0.1796663906652629 -1.4062498968438484 5.6035062086009395 255 255 255
-1.7200210251955856 -0.28729821459316074 7.358124545794753 255 255 255
-0.5598912978816445 0.22985742298519565 5.788597796743411 255 255 255
-0.2619429537393169 -2.1507334575594212 6.116640579366299 255 255 255
-0.1358416792820076 0.6041719821057305 5.072214228326516 255 255 255
-1.139003248039678 0.6680110456780645 6.155590944730832 255 255 255
-2.142747208615594 -1.5400918816147993 7.8758180435628695 255 255 255
-2.103224210200421 -1.5033881306328385 7.8285215463734295 255 255 255
-0.003813865747917118 -1.3152130435707956 5.74141036100158 255 255 255
1.0236947617877852 -0.8411187870728383 4.712532162276412 255 255 255
0.68715730912599 -0.4052931891167576 5.0308066673059715 255 255 255
-2.078534769524205 -1.505880552402556 7.810655745835883 255 255 255
-1.5170566907520262 0.8882293242761625 6.394557302720305 255 255 255
-1.747333351705359 -1.8265779844381294 7.543827290836718 255 255 255
-1.516615333684406 -2.6274754587290103 7.3958837098800965 255 255 255
-0.9130826462077278 0.17722251780845857 6.1147368337146455 255 255 255
-1.4864125525484457 0.5731067308762408 6.640071767243915 255 255 255
-0.44355468069957127 -0.7744523113155266 5.659276943175782 255 255 255
-0.674182544099285 0.658124903350333 5.588573255641764 255 255 255
0.8644410463324532 1.1698645764996245 4.665222296817015 255 255 255
-1.94436382793921 -1.6787675851855712 7.7245684525997484 255 255 255
0.9251206304621755 0.657388705507344 4.661115434205257 255 255 255
1.158088421434282 1.3279853289201433 4.23902758354498 255 255 255
-0.4846934880138915 -1.4518440189071378 5.805694124709363 255 255 255
0.7222983320893533 0.15677016111007488 4.9214237754884715 255 255 255
-0.6452758511926625 -1.026402931505193 5.8148374018390605 255 255 255
1.0236947617877852 -0.8411187870728383 4.712532162276412 255 255 255
0.48939352753510995 0.4898431659139219 5.1151512557939816 255 255 255
0.5228351782761224 1.2796190315972715 4.880105573034481 255 255 255
-1.7175694327630404 -0.133998774621164 7.3270716949104155 255 255 255
-0.9144066730283065 -2.0258649780298525 6.746565925562375 255 255 255
-1.3472502010535445 -1.884297178375738 7.148833121527555 255 255 255
1.1373186933301374 -0.05319031836894457 4.532949193766899 255 255 255
-0.5846646360606639 -1.2903968636123078 5.604123729295205 255 255 255
-1.504107271192623 -2.4029996349821547 7.3640771538468 255 255 255
-0.54089916861105 -2.102585236791934 6.274665937810183 255 255 255
0.6883814478765118 -1.121473960902203 5.083412763328609 255 255 255
-0.11831746263134675 0.606001402272968 5.033029161914161 255 255 255
-1.4005090941737652 0.9497766877398852 6.154916105786859 255 255 255
-1.4353652749556585 -0.5501888341438833 7.095743043165621 255 255 255
-1.1785798596999972 1.2066628421638506 4.494838240543456 255 255 255
-0.7754834980977353 -0.46432959259787027 6.033742837884444 255 255 255
0.4140136586389052 -1.0525473222735329 5.343639353986298 255 255 255
0.5979838684783199 -0.3713537412254629 5.099779231182482 255 255 255
0.39291877529020697 -0.6991622437748801 5.327718990933083 255 255 255
-1.0621827326161124 -1.986465789320419 6.878875781415875 255 255 255
0.20507447516842986 -1.3189813107004178 5.576305852058666 255 255 255
-0.6064733021517649 -1.9726427037643066 6.338377010985765 255 255 255
1.1108505710172636 -0.8455387390136234 4.6265042577311 255 255 255
0.18944159492206114 0.09037672484282475 5.055603664346927 255 255 255
0.0093598074170521 -1.2707336060396357 5.71510929624896 255 255 255
-0.8801769303094936 -1.962459729755038 6.707294400946514 255 255 255
-1.499610018062212 0.533267033092707 6.630429458617111 255 255 255
-0.5984646172318653 -0.844318601484782 5.722295444649198 255 255 255
-0.6043899118041358 0.6780825465028848 5.528621627751368 255 255 255
2.422860451583502 1.3636295625413628 4.738230346111492 255 255 255
0.047375562890065726 1.086962507030124 4.823491626347842 255 255 255
-1.5266877944526083 0.7067779747682141 6.5329568076990805 255 255 255
-0.6191312536761506 -2.043986980013306 6.34625451078774 255 255 255
1.1490759652319558 -1.6280960930703514 4.678810723842947 255 255 255
-0.21240122528375205 -1.9098972360555952 6.04195053025813 255 255 255
0.7463762988804112 -0.42878735346313845 4.961714176719186 255 255 255
0.6032360399954857 -1.817907038192069 5.234069625710257 255 255 255
-0.21006458705833916 -1.704703276395395 6.0173645637980675 255 255 255
0.44863837335585094 -0.3625476760153295 5.22885874903204 255 255 255
-0.3595410885111499 0.6431921787522786 5.286058162555473 255 255 255
-0.939827120047231 0.9833217834644458 4.569222466163497 255 255 255
0.09989079161129698 0.8522877303817512 4.7332144041030295 255 255 255
0.7493985432746539 0.6417931269030372 4.833051318606231 255 255 255
0.895412967080361 -1.2707076005003792 4.867877879541958 255 255 255
-1.4897890887491967 -2.1112914975961115 7.317361598207775 255 255 255
0.3302670277215083 -0.8953144277010469 5.407910687495595 255 255 255
-0.947522257842021 -0.0965158641828708 6.149920976931459 255 255 255
0.08658222543361162 0.37057229842850753 5.288871465494966 255 255 255
-0.241396943442293 0.08204820860207282 5.634188199805077 255 255 255
0.619305886447164 0.6557557994608306 4.968917292252075 255 255 255
0.03866619068830732 -1.651659243262105 5.783557448480598 255 255 255
-2.0045673898505716 -0.7315125191274994 7.666444663815273 255 255 255
0.8382533176683573 -1.1444070502629808 4.923758890567141 255 255 255
-2.619523150069906 0.5845867745458595 8.074065933026674 255 255 255
-0.08999101494927957 1.271430578106154 4.859951730009586 255 255 255
-1.0386791113783647 -2.287846530167286 6.89126136747854 255 255 255
-0.9271690803884904 0.48390647773295 6.102291042123173 255 255 255
0.4346124422997118 -0.7099095935224079 5.297514326720329 255 255 255
-0.059486884373655666 0.15294598848069302 5.422983719568938 255 255 255
0.8008048792122375 -1.4181527599105885 4.991498807650098 255 255 255
0.6444794111437995 -0.9749920906769468 5.100451987504676 255 255 255
-0.38102264118677426 -1.9802030206068115 6.187519046168637 255 255 255
-2.0909471072181782 3.745942562375988 27.360325002768256 255 255 255
0.7170538161340839 -0.23200923168662327 4.980091400762776 255 255 255
-1.7826881466661642 -1.159695637767892 7.4938643196796395 255 255 255
-2.61444979528004 0.9070495249925477 8.028324110032896 255 255 255
0.552646653688366 -1.2474355330755114 5.231256634769284 255 255 255
-2.1483128946419443 -2.456986793353082 7.998529066634343 255 255 255
0.6333779492279455 0.6742196258106016 4.962682279222919 255 255 255
0.623797407181367 0.9704865568891411 4.939447844660907 255 255 255
-0.867380027953102 -0.3268812404706587 6.103762510639024 255 255 255
-0.9280715095593254 -2.1664895033314258 6.774589064821357 255 255 255
-1.8735906197305245 -0.08974286839760849 7.4626671297298515 255 255 255
-0.0010442379438003009 -1.4534847266521007 5.790652415813835 255 255 255
0.7187429738974144 -0.017357690969251355 4.932075660417143 255 255 255
0.6778708849139443 -0.7997875154670285 5.056435767335371 255 255 255
-0.6925960407801801 -0.2525937760048579 5.920841160607529 255 255 255
-0.45816133530634257 -0.12044749107126797 5.700536663634596 255 255 255
-1.0402101462785471 -1.9650195358210818 6.857586947132169 255 255 255
-0.7157374894066983 0.8056912018304597 5.61970763183889 255 255 255
0.5147634895795624 0.0007457303703400833 5.137849192364691 255 255 255
-1.0451921329300071 0.7173200899083773 5.960216083498151 255 255 255
-0.7884698029028027 0.20634607646447797 5.807389671218956 255 255 255
-1.2275482573733962 0.3145952994491385 6.580267688325078 255 255 255
0.13874015711149734 -1.9260809330638007 5.704461848331605 255 255 255
-0.4321051483151521 0.6360991074637053 5.361978995566783 255 255 255
-2.0206644924356802 -1.8646667725885153 7.800026440811967 255 255 255
-1.9430149047007692 0.7412012845457536 7.441980363188441 255 255 255
-0.5326530077978775 0.4053962364729405 5.698420450476558 255 255 255
-0.7469429312478231 0.23035601436610212 5.75569369390966 255 255 255
-3.707077866706805 -2.4535136715306183 8.704392933165455 255 255 255
-0.493278649963421 -1.9924888817273605 6.216205947417419 255 255 255
0.4362083043884645 0.3394917975697864 5.174617250268602 255 255 255
0.40653918167041286 0.6844336004681358 4.991655564951151 255 255 255
-0.6913657515891679 -0.5176115565848333 5.958914168799635 255 255 255
-0.47941464648432675 -2.0901218822488894 6.201723816325084 255 255 255
0.5968350315536652 -1.7204231889440278 5.222372848708097 255 255 255
-1.4743080779943465 -2.3897762307515378 7.302979785578205 255 255 255
0.6830519452078431 0.45717840734967435 4.930533741981791 255 255 255
-3.580090234374873 -2.200360874562782 8.5465849763937 255 255 255
0.7452700818672569 0.1702884500045335 4.892732774932675 255 255 255
0.6816250601315161 -0.10084505753213555 4.974600495093218 255 255 255
0.7984393130182347 -1.234488400303913 4.973617895915744 255 255 255
0.9042993736218617 -1.176595266113298 4.863041393278331 255 255 255
-1.9006586263931897 0.7700056730529746 7.396086019538225 255 255 255
-0.6042362113392185 -1.9538129897075769 6.33279250613156 255 255 255
-1.2750433282353133 0.3221427780398126 6.629395037913229 255 255 255
-0.08417476622828633 -0.12710647035583847 5.5016986511802735 255 255 255
-0.07792833404542952 -1.621770171678871 5.88932474447383 255 255 255
0.6215614310877551 -1.7249265292466214 5.202901710235341 255 255 255
0.5935642054138283 -0.9171896682376642 5.16399314289012 255 255 255
1.10299020667607 -0.23953461875649193 4.591361345927832 255 255 255
-0.36349579883411093 0.7695042706290223 5.280966498363794 255 255 255
-0.538845400974919 0.601798561262711 5.559157959556219 255 255 255
-0.9656788430679122 0.8002310719218217 5.863166997053481 255 255 255
-0.7219606663000411 -0.5332410891920935 5.980262615872494 255 255 255
0.21214103458789924 -0.5124130247956566 5.493578977548621 255 255 255
0.7359071249541947 0.8148082569974867 4.838087251301716 255 255 255
0.7121217759398715 0.6214120873751986 4.88900472411679 255 255 255
-0.2318876481689514 -1.9333469261605851 6.059500003050014 255 255 255
0.7864420187875559 -1.7265168572228704 5.042613075817886 255 255 255
0.7891414806319414 -1.3666135146452587 5.007738191966876 255 255 255
-1.3538724733800476 1.062680221371874 4.753409912515651 255 255 255
-0.016830402943431612 0.5414111130991688 5.040380543475838 255 255 255
-0.6690260012714762 0.14859228713128253 5.901061908595054 255 255 255
1.2281403534958755 1.3272428070562765 4.148226902102008 255 255 255
-0.4649586374673765 0.4302162511485654 5.652230023595709 255 255 255
-0.47591482079813957 -0.8636144311781231 5.600787197954936 255 255 255
0.6728868116150188 -0.3236540149662958 5.006262945021828 255 255 255
-0.506970191327123 -1.871868567876286 6.247554565210582 255 255 255
-0.9160387010078003 0.019274041205386568 6.14076883357053 255 255 255
-0.7300947607733022 0.269250600332257 5.752660414541447 255 255 255
-0.5168651472287292 -1.9204758170454863 6.237085950414817 255 255 255
0.6654360038231467 1.1273032717967497 4.880055823210009 255 255 255
0.5968350315536652 -1.7204231889440278 5.222372848708097 255 255 255
-1.8900854783251537 1.1902768140569946 5.268049252075715 255 255 255
0.9724397585737042 1.0946176322585812 4.5470356722375245 255 255 255
1.0413472545670852 0.887781698692652 4.536723384631188 255 255 255
-3.582719879248918 -2.1682739042933035 8.535229335482736 255 255 255
-2.1089897128076305 0.30798688617101416 7.65209881201674 255 255 255
-0.30051133515266343 -2.1780774214778993 6.166436400145887 255 255 255
-1.4312562828560427 -1.0752619098837566 7.127835398388109 255 255 255
1.0423424028686519 0.6081295834561861 4.550645803583912 255 255 255
-0.9816097132034473 0.829103904898591 5.877860327602484 255 255 255
-0.07035966245688254 -2.037094254324395 5.927466991592326 255 255 255
-1.6358632218644862 -0.31685421587538437 7.271041837597635 255 255 255
0.6807953410743461 0.9317749314613208 4.889778603062297 255 255 255
0.48200485154738426 -0.20548897635327185 5.1925258580778 255 255 255
0.8579059605119801 -0.23526557085222796 4.826147497197742 255 255 255
-1.6445462964786022 -2.2435742669290497 7.481864298221204 255 255 255
-0.0502329924690647 -1.5152469823391899 5.842109357427681 255 255 255
0.9237154254279544 0.17620428753936493 4.728672833423745 255 255 255
-1.745716847426414 0.7897300595676201 6.621086832232801 255 255 255
0.6932692196374269 -0.04746186589735076 4.967587254675683 255 255 255
0.7121217759398715 0.6214120873751986 4.88900472411679 255 255 255
-0.5602349974595573 -2.1447112643674413 6.297159679617699 255 255 255
-0.4371168725133164 -0.6491523426710242 5.63679191366008 255 255 255
-2.143776149660643 0.0907345830971145 7.717099306689683 255 255 255
-0.6466439666042152 -0.5113486557544477 5.911169537305532 255 255 255
-2.114115318454751 -0.9340805051688376 7.810772274209486 255 255 255
-0.2528130250590717 0.6490735043135804 5.184139336402935 255 255 255
0.6993692785119819 0.6074822090564864 4.899119507946766 255 255 255
0.6533564190340856 -1.09007511544191 5.0906722745101005 255 255 255
-0.6466439666042152 -0.5113486557544477 5.911169537305532 255 255 255
-1.6829697499537513 -1.0485412728288466 7.410579430094328 255 255 255
-1.4949047057162643 1.6599621525713284 12.048536041731769 255 255 255
-1.139003248039678 0.6680110456780645 6.155590944730832 255 255 255
-0.4674375525028971 -2.0938272731725136 6.1887482497218045 255 255 255
1.0030405042681658 0.6100371086988101 4.604438188664552 255 255 255
0.038202237539567675 -1.7947804539313588 5.7894511428751265 255 255 255
-1.2509898578904841 0.8600744110754175 6.146408408183273 255 255 255
-0.5561679628660768 -2.1090513153906554 6.292809283441742 255 255 255
0.20136514638646055 1.2434985467762156 4.6515075124081875 255 255 255
-1.931190668785453 -0.6040263282583704 7.593635883131335 255 255 255
-1.2573301857675134 -1.770517227406815 7.042462336288537 255 255 255
-0.459200290806214 -2.142910254452019 6.186801323762282 255 255 255
-0.4532267655376915 -1.961327691904429 6.163151174961018 255 255 255
0.7188881768226633 0.6048630740820178 4.8853061188040945 255 255 255
-1.4519335497792107 -1.0649947530471071 7.158299466851054 255 255 255
0.7640983889217808 -0.7508163810815156 4.969146611946952 255 255 255
0.24185608874483858 0.05294983572098959 5.028812590200837 255 255 255
-0.4596574026590181 1.152236352840899 4.785634606438106 255 255 255
1.0832537391316381 0.6041201891218598 4.512901401628607 255 255 255
-1.2822327228053092 -2.310956546743329 7.143790835220954 255 255 255
0.6483188598347998 -0.9420760303337256 5.106241148043056 255 255 255
-0.41695868871912845 -1.9181421637140912 6.181665817930316 255 255 255
0.08658222543361162 0.37057229842850753 5.288871465494966 255 255 255
0.1157408736995618 0.6876454640761037 4.814242600044514 255 255 255
-0.5594478616655417 -0.7434873342474784 5.71855504238741 255 255 255
-0.6241885837936446 -2.0208633442008708 6.35337469316328 255 255 255
-1.6274719652099465 -2.2112384197671417 7.441972711477759 255 255 255
0.1646679658999378 1.2529457056034858 4.616420662870742 255 255 255
-3.0387829342863317 1.5674908378098287 7.062290092431785 255 255 255
1.1099003101552807 -0.07109806818909575 4.578107710462089 255 255 255
-0.23038582095129378 0.21812216836739085 5.597966186384994 255 255 255
-0.5703900064835801 0.6667273360669588 5.482054792717498 255 255 255
-0.5796919788898605 0.3288166624363205 5.683750828173032 255 255 255
-0.7447106371683031 0.20052905779597463 5.843161217682537 255 255 255
-0.9542536645477786 -0.678310826376691 6.097644824761907 255 255 255
1.3403985056115546 1.178728227794972 4.084500813390374 255 255 255
0.6963392091518735 -0.1700051668397111 4.975268784612831 255 255 255
0.823273764412418 0.49949389110610687 4.762645075410177 255 255 255
-0.4462661553124715 0.43250467285395494 5.632580797238365 255 255 255
-0.4293035974379597 0.02918006048248515 5.652189131579921 255 255 255
0.5204609950726772 -0.7305121230796168 5.205961037017325 255 255 255
-0.054210847687387806 0.12478537104231212 5.431138284593655 255 255 255
-0.06824249529705778 -0.15520424591091025 5.489130159290082 255 255 255
-1.7826881466661642 -1.159695637767892 7.4938643196796395 255 255 255
-1.94436382793921 -1.6787675851855712 7.7245684525997484 255 255 255
-3.5743736463935556 -2.6161112487168214 8.552533873633942 255 255 255
1.0947030588964402 -1.405322292381767 4.7098117903779455 255 255 255
-0.5602349974595573 -2.1447112643674413 6.297159679617699 255 255 255
-0.946447692423111 0.4851081850723459 6.12348107091622 255 255 255
0.7304549815877068 -1.148264090463814 5.0371523216958 255 255 255
-0.8956451037793947 -0.10561466688891276 6.115407543734864 255 255 255
-2.152594319861724 0.6672565749089249 7.671115732319269 255 255 255
-1.6594156122499233 -0.13891503001214978 7.274491288662457 255 255 255
-0.6792111527994469 -0.5388745239758324 6.208473667007745 255 255 255
0.035566074131200096 -0.7295436714357543 5.516634646515258 255 255 255
0.7629593405848583 -0.40828654029825384 4.941937015417064 255 255 255
1.2068063192166871 1.320772670278613 4.175224000958944 255 255 255
0.8145079990788668 -0.9711440665021107 4.9524857358946015 255 255 255
1.0977772497206697 -0.34824166825770636 4.582289730884651 255 255 255
0.7082660523799016 0.281592714424107 4.922261797396589 255 255 255
-2.6406421904129123 0.44577261395598705 8.080319893997975 255 255 255
-0.946447692423111 0.4851081850723459 6.12348107091622 255 255 255
-0.08417476622828633 -0.12710647035583847 5.5016986511802735 255 255 255
-0.5749499499153817 -2.1607678461737474 6.3066036432084385 255 255 255
-1.7220837673556195 -2.019545768318821 7.521010089898145 255 255 255
0.40855725745025984 -1.6798876364470678 5.40416356430744 255 255 255
0.6050547061283037 0.5306553649537139 4.992688819371907 255 255 255
-3.5743736463935556 -2.6161112487168214 8.552533873633942 255 255 255
0.15351158718569213 0.23320226324397408 5.23246271809533 255 255 255
0.6167102640819182 0.17217632397757876 5.019827687659837 255 255 255
0.5825711417409465 -1.8778824835512637 5.272988460965978 255 255 255
-0.11165569260527837 -0.07323244881132054 5.506500616861196 255 255 255
1.1137648828365174 -1.349846851957917 4.6790863068738116 255 255 255
0.7575290603419446 -1.099777960756661 5.021282699280504 255 255 255
0.600569906244199 -1.3536456184465726 5.19499075105937 255 255 255
-3.5743736463935556 -2.6161112487168214 8.552533873633942 255 255 255
-0.0631883469855004 -1.4415074183485628 5.849274435934512 255 255 255
-0.1090577659653406 -0.8979996695197041 5.35803896032984 255 255 255
0.6893036711072827 -0.7938659367306108 5.046281613165563 255 255 255
-3.5701350911812875 -2.648592719430315 8.602609905617136 255 255 255
-0.5249178744265083 -1.9837650729251188 6.239845652955887 255 255 255
-0.5027647989965952 -1.9946248146883716 6.226037327372639 255 255 255
-0.1695486839747546 1.257425567987931 4.9632151058172616 255 255 255
1.6971343823159675 0.16981976112185002 4.587227533481168 255 255 255
-1.2103516649026487 -2.255099608138669 7.06251926188071 255 255 255
-1.4689208001530656 -0.0348640320763132 6.690675856660713 255 255 255
-1.1993073178429374 1.2240939597322569 4.481275511051224 255 255 255
-1.425297319248161 -2.2688865827736944 7.306113493768322 255 255 255
-3.7605987201273914 -1.971476471600084 8.404202658343204 255 255 255
-0.2540108816432125 0.8498090412053959 4.973942953681964 255 255 255
-0.5324849034331012 -1.9047961463619991 6.255511125159188 255 255 255
0.9067432023262141 -1.1953102767728094 4.874830593560677 255 255 255
-0.6131825908217102 0.1165647546940328 5.89890478681545 255 255 255
0.768148187160108 0.8303562696656003 4.792776763354998 255 255 255
-0.5381083689926868 -2.140274663470382 6.269006682508158 255 255 255
-3.5755913046751355 -2.3916541926506603 8.53806682541306 255 255 255
0.6729403717509098 -1.5356801178532016 5.137064514690716 255 255 255
1.079539391728463 -0.08122394324158413 4.576340877015964 255 255 255
-0.4535177085658141 0.007434993647572609 5.669524039593624 255 255 255
-3.894150248921543 -1.9742408550424946 8.295338912460391 255 255 255
0.6858489854649379 -1.5752661025323305 5.128362301664007 255 255 255
-2.0011364342275146 -0.9533054603675688 7.680811070106254 255 255 255
-0.264747428381145 -2.121780812846428 6.1306729358719645 255 255 255
-1.6485798538136514 1.3705739228326794 4.635855945724145 255 255 255
1.9140507595684102 0.29012086447746976 4.4918682606796985 255 255 255
0.11430338694779334 -0.10190232933320673 4.989322584621759 255 255 255
0.19048825214696177 -1.8207961060726596 5.64205277341717 255 255 255
0.4815976099199329 -1.6716597007931249 5.34739255313678 255 255 255
-0.5670981281966136 -2.110917722693077 6.291155117146259 255 255 255
1.3432880526135589 -0.6905300856987144 4.420255063898928 255 255 255
1.093191781305248 -0.07857720469200244 4.566144632884836 255 255 255
-1.2744923446924474 -2.583949129327116 7.157985684798509 255 255 255
-0.5070945886289777 -2.0686621822590054 6.239364408473653 255 255 255
-0.261074051235905 -2.036404717371197 6.106569414062925 255 255 255
-1.4805152064862581 0.8487502553483424 6.355300409611458 255 255 255
1.2002828403486747 1.0693939212586165 4.347667613960772 255 255 255
-0.5237205069227131 -2.083008994682562 6.2438566855023625 255 255 255
-0.23346071796815507 1.2758184241783763 4.920103082639119 255 255 255
-0.5749499499153817 -2.1607678461737474 6.3066036432084385 255 255 255
-0.38334588563602146 0.7387108741729022 5.2929663426873015 255 255 255
-0.22717965767184034 0.3780681277556175 5.583985178477497 255 255 255
-0.02204032917775086 1.0136820879116821 4.893614572169971 255 255 255
-0.5521933079633717 -1.491038356425128 5.879522940788314 255 255 255
1.332533494102518 1.2107812217964011 4.084729850919601 255 255 255
0.6149445546336363 0.4536422062987539 4.993789945336735 255 255 255
1.1272637723318641 -1.3987951139309998 4.661986953268962 255 255 255
-0.4447523110425439 -2.1270239515123315 6.175796295091819 255 255 255
-1.9268026883616864 0.2842937121636332 7.489569000485527 255 255 255
0.763101992603611 -1.2769941184632954 5.034474793909842 255 255 255
-0.8129262699500748 -0.3809059934706678 6.078417549570008 255 255 255
0.5196129900490903 0.8495349125825665 5.026902364762281 255 255 255
-0.0011776452701198774 -1.2200403876363406 5.7230366734440485 255 255 255
-3.583182086582656 -2.8549322370494656 8.608686860550984 255 255 255
-0.11185161691093622 0.7109994194114302 5.028332724458185 255 255 255
1.1354667435097183 0.13654327977043798 4.5067543870396936 255 255 255
0.2564916024398399 -0.6877452836123431 5.455529215913758 255 255 255
-0.9276698645982678 -0.6108075546703812 6.08972996272428 255 255 255
-0.44606288627908863 -1.9761289569984286 6.163257323329725 255 255 255
-0.5094272085058001 -0.7906162761586926 5.645260252358898 255 255 255
-1.0087564504565263 -0.7722860111035564 6.146079693075994 255 255 255
-1.6934921541029073 -2.370737020530626 7.541109576047996 255 255 255
0.5195717497644387 -0.009349815358252772 5.139962453352669 255 255 255
0.74404485249096 1.1131729966530857 4.819064197406326 255 255 255
-1.4396381125492599 0.7112960824133043 6.57322548103726 255 255 255
0.3353363334079855 0.6399953469854124 4.933220184595773 255 255 255
0.6081058844056662 -0.9610086302284099 5.1347278882679905 255 255 255
-1.031436144602967 -0.7813019693938345 6.139174456706779 255 255 255
-0.7014943446696698 -0.031678938618790994 5.943034728994614 255 255 255
0.895412967080361 -1.2707076005003792 4.867877879541958 255 255 255
1.038726233274371 0.4385260431612078 4.5771898575390475 255 255 255
-0.16840431759509591 0.889735840938072 4.994599285626411 255 255 255
-0.4537665062089395 0.02179978813284419 5.671609284919495 255 255 255
-0.956804729728691 -0.8536687498590128 6.061019841039807 255 255 255
0.7560015973174834 0.2883772098806278 4.877618665085286 255 255 255
-1.425297319248161 -2.2688865827736944 7.306113493768322 255 255 255
-2.2666846655959367 -0.8996745906618364 7.929955978753939 255 255 255
-0.42464860068738913 0.3365573975578217 5.620971180448482 255 255 255
-1.5214762940150106 0.7655046268481942 6.40437585284305 255 255 255
-0.7153129682865875 -0.5071284770169855 5.98533786844958 255 255 255
-0.08772254237620909 0.7404112379824608 4.997324759320412 255 255 255
-0.114071189819208 1.0157692699585794 7.19841452298941 255 255 255
0.000516317578315459 0.6259419623908979 4.927411188001228 255 255 255
0.8288564655710001 -1.0962686430851591 4.923465429552523 255 255 255
-0.08805844103037593 0.08111683220387814 5.452476668680906 255 255 255
-0.23660802251320964 0.6351822147130382 5.175511791697427 255 255 255
-2.0316288759616565 -0.7861916886192569 7.6937147160425345 255 255 255
-0.6265353562402454 0.3363880119137405 5.707903303275514 255 255 255
-0.41325922018696937 -2.071125107472068 6.149952392230656 255 255 255
-0.4293035974379597 0.02918006048248515 5.652189131579921 255 255 255
-0.165329315846145 0.3834334860077171 5.531203163874156 255 255 255
-0.3392995786376715 0.7173029445221993 5.2669981564771975 255 255 255
-0.08772254237620909 0.7404112379824608 4.997324759320412 255 255 255
0.25487943075472325 -0.9257174925634125 5.478344311670529 255 255 255
-0.07085656305815163 -1.4535930227790395 5.866363106956724 255 255 255
-0.5163036427690884 -1.9544194465418485 6.22916920187324 255 255 255
-0.70011480185767 0.2825269075468318 5.7426413173172195 255 255 255
-0.5517280207848966 -2.039922497886221 6.285054639879618 255 255 255
-0.8406113730314698 0.6907240073410517 5.734313678721544 255 255 255
-0.27161367723511515 0.6540552482521672 5.194179201715638 255 255 255
1.0309496618876908 0.8722281579961183 4.5345219405029376 255 255 255
0.9279034829553987 0.17563693277361245 4.704542038880568 255 255 255
-0.4301977338329822 -2.075836209000534 6.156805357870808 255 255 255
-0.5591414977949367 -1.8875857316043778 6.283842265188561 255 255 255
-0.5107510978586377 -1.4737441309494164 5.827019353283445 255 255 255
-1.0976303205227702 -2.375224042423662 6.950683715759007 255 255 255
-0.5131754404771224 -2.0207569680965256 6.238131344490024 255 255 255
-0.796408970890988 -0.4094229870683129 6.071631564790084 255 255 255
-0.4866337556084083 -0.8795630879565921 5.608294247371083 255 255 255
-0.39901722614895985 -0.8572129156449455 5.661446939861371 255 255 255
-0.4490401704272642 -1.942101553819334 6.161327693671373 255 255 255
-3.6902057557819945 -2.858445890639002 8.530569855101119 255 255 255
-0.9882238697652945 -2.0198242601825327 6.821708832130772 255 255 255
-0.7852338713320262 -0.6687328694726925 6.060891761505931 255 255 255
-0.5163036427690884 -1.9544194465418485 6.22916920187324 255 255 255
-3.8920152190632153 -2.4299129205801524 8.336838732739048 255 255 255
-1.2275482573733962 0.3145952994491385 6.580267688325078 255 255 255
-1.4534213027131557 0.8514674238992128 6.330377947422489 255 255 255
-0.12557909316035257 -2.0225908709290406 5.975297326249567 255 255 255
-0.23660802251320964 0.6351822147130382 5.175511791697427 255 255 255
-1.1297761551313203 -0.14081300896240273 6.489876420759638 255 255 255
-0.5996829601776779 0.9786594648755332 4.667374001250127 255 255 255
0.7089702956994368 -1.5472770768676751 5.109775797564203 255 255 255
-1.3250511252663273 -2.1348614865717663 7.163947772072686 255 255 255
0.5775428633511875 -0.1860364398064235 5.096529990485322 255 255 255
-0.4056188418603138 -1.9545261072822657 6.175952561035666 255 255 255
-0.5332360859244158 -2.1274239259048366 6.269876074301947 255 255 255
-0.577143126922757 -0.8186510539333169 5.7230207293271 255 255 255
-0.5321934245384639 -0.8630116214278798 5.650864242496806 255 255 255
-0.22663466385598569 0.2033654155956452 5.599571458347273 255 255 255
0.5924920269978003 -0.9670542085944859 5.172124843676842 255 255 255
-0.5898818326660705 0.29234658743519504 5.751309462865977 255 255 255
-0.298830562765895 0.5913446950728657 5.4722272073777125 255 255 255
-1.4805152064862581 0.8487502553483424 6.355300409611458 255 255 255
-0.6651232315605662 -0.6082516773401077 5.945493121620788 255 255 255
-1.5739551471760838 1.367597676968879 4.753528841022504 255 255 255
-0.0745386003437116 -1.9112457587977176 5.918758778143132 255 255 255
-0.08569340305794712 1.0794066274845977 4.948569012867034 255 255 255
0.6880160101263838 0.6277936583167664 4.897946540257511 255 255 255
-0.11210311262160165 0.22082090105497576 5.507044754275662 255 255 255
-0.42204619414651573 -2.1045231700281675 6.161225660517066 255 255 255
-0.5367175455789496 -2.057684552305033 6.268272871338658 255 255 255
-1.5499073761808702 -1.9851795798713552 7.358788168360738 255 255 255
-0.4082916306089367 -0.813711986066193 5.682976845575605 255 255 255
