ply
format ascii 1.0
element vertex 694
property float x
property float y
property float z
property uchar red
property uchar green
property uchar blue
end_header
-1.605147002905412 -0.1289494484153294 7.462988376530684 255 255 255
-0.7363582454257986 1.3268719025903855 5.115259969650091 255 255 255
-1.1758993770956576 0.9688565864831281 6.737669864172553 255 255 255
1.0423613648871126 1.4903987558769334 5.774409646839644 255 255 255
1.813212028505506 1.7251955600026234 5.040242936255045 255 255 255
1.427327269279879 -1.7419637238980799 5.933659236856602 255 255 255
1.6618518384793373 -0.36914437371988446 5.569383126306347 255 255 255
0.9875653607606447 0.7802005224176555 5.9011818006797085 255 255 255
-2.2815011842363644 -1.3612678584523152 8.512264172808177 255 255 255
0.3253385977240651 -1.0759785133409205 6.611463021799578 255 255 255
-0.49155941482914217 1.0824089243325479 5.144718422668175 255 255 255
1.492767435995552 0.6747283977637558 5.556122623068765 255 255 255
-1.9045319850639082 -0.660432276630299 8.14086241464514 255 255 255
-2.6188270903338124 -0.9476053998261015 8.657818442194282 255 255 255
1.1546148775449985 -0.3832034511930892 5.940573909328739 255 255 255
-0.6922646392970773 -0.5190099453795357 6.827748534813587 255 255 255
1.469891698818659 0.4718731625575861 5.591647897616626 255 255 255
-2.4548007920240202 1.1093203303041856 8.277723853752146 255 255 255
-1.9700182991225004 -2.250788244007346 8.413959947471767 255 255 255
-3.0450577646478076 1.1774696205547739 8.685335045641205 255 255 255
1.3925115917084798 1.4772537244979567 5.522300464761338 255 255 255
0.603126011721955 -0.47551086329408954 6.343488633926811 255 255 255
1.884984435297801 -0.23257861366463503 5.394278999459045 255 255 255
0.9479055503418942 0.5343371923441813 5.971330999803312 255 255 255
-0.7363582454257986 1.3268719025903855 5.115259969650091 255 255 255
0.005537817084098162 0.5258088039604357 6.377732522128656 255 255 255
1.8055929843522172 0.411806594248266 5.353540849412584 255 255 255
-2.4234942208236205 -1.8834204336636826 8.6800412869139 255 255 255
1.0598857982851018 -1.9149659730562751 6.215390254881476 255 255 255
-2.2061615975091478 -0.03767587186735279 8.2606129219897 255 255 255
1.2304055697682692 -0.7739037236875415 5.935964568306222 255 255 255
0.3099842638025804 -1.3989981658741737 6.6797657033264315 255 255 255
-2.0377567503048133 -1.5920466576208385 8.39374056983334 255 255 255
0.8927124261392015 -1.8965354779459058 6.3266550487724835 255 255 255
1.3572380158124655 0.09075641571055701 5.7315042964837035 255 255 255
1.6983978670992605 0.273990111021068 5.449493377733675 255 255 255
1.3970283752517343 -0.993905673221154 5.861537964000521 255 255 255
-1.5026676750893706 1.5763211019111882 5.253123904366808 255 255 255
-0.9368609232149683 -0.46502241604930833 6.995166228939366 255 255 255
-0.8482160862950203 0.4835674835755324 6.552548151410341 255 255 255
1.7092936184086536 -1.5226468199088703 5.6899040668435115 255 255 255
-2.3518780586088397 -1.1315503792569446 8.522970823409672 255 255 255
-3.0498359649477105 0.255404372207707 8.809039120094614 255 255 255
-1.8781484252243126 -0.9083551093041075 8.161967787507256 255 255 255
0.9328400876716295 -1.3525030161901799 6.226586573688366 255 255 255
-0.827221087796822 1.3231548038988932 5.096530736845726 255 255 255
-0.7826226358836207 0.4484942489540497 6.544951092163987 255 255 255
1.8800421837703793 1.1891791836298338 5.182392783899775 255 255 255
-2.3100179494272375 -1.1363814660689102 8.498877238739276 255 255 255
-0.3196982946514178 1.3928459191655977 5.399383411108054 255 255 255
1.8041742211701577 -0.62466897572475 5.498275986056957 255 255 255
0.32264370426665 0.5507965815199927 6.168711880140448 255 255 255
0.23705652073165867 -1.2345351476442195 6.703359790813118 255 255 255
0.9184627537055787 -1.899730450795983 6.315417776323236 255 255 255
1.0446078510790038 0.15213915884471754 5.932763526022496 255 255 255
1.2214674699931267 1.4148449421108946 5.6503244304149804 255 255 255
1.391387520476155 -1.3727624234916758 5.892138295603865 255 255 255
1.816436812857423 -1.0871473965499554 5.54434786798882 255 255 255
-0.04323001365326407 -2.0180686209983083 7.012186995897992 255 255 255
1.0970942124749699 1.2454322956293515 5.770926649431305 255 255 255
-0.04323001365326407 -2.0180686209983083 7.012186995897992 255 255 255
-0.28236556889492026 -2.0928207447582055 7.193749339941521 255 255 255
0.9658573398491151 1.4488846816449221 5.831689452875581 255 255 255
1.3688139976395377 0.9234843038584921 5.586123336736409 255 255 255
-2.6918149872286237 -1.6791856889844239 8.819986518821253 255 255 255
-0.7251056465375904 1.0782582761746662 6.398809143766541 255 255 255
0.14917267202896778 0.8500466678023152 5.800008947303081 255 255 255
1.1480965729485413 -1.2338777348573626 6.060954750621257 255 255 255
1.8141506826060487 1.4332587459269133 5.219512911121481 255 255 255
-0.7591301509058545 0.04126838478971873 6.793497113030284 255 255 255
0.8478752902184263 0.1467943940847524 6.091287676732368 255 255 255
-1.0753678780427915 1.5056632838919808 5.007580718829128 255 255 255
1.8116897608076596 -0.4325313924364744 5.454169330562385 255 255 255
0.9827091468231087 1.3278645464666572 5.833995193791173 255 255 255
1.0838535363827417 -0.33452211070492266 6.004318026988271 255 255 255
0.9291907893035787 -0.9524368590800952 6.175251777937002 255 255 255
1.6771000447539162 -0.8584518602827281 5.619614330205044 255 255 255
0.8693856881708382 1.6687846618556297 5.746157666976847 255 255 255
1.6583834236102069 -1.5072192297474514 5.727720351369968 255 255 255
-2.6153783689393566 -1.2883806624308936 8.717887146253394 255 255 255
1.272603700910179 -1.147772108282881 5.954087859172114 255 255 255
1.2227860005573612 0.33816894947369724 5.796133985411492 255 255 255
-2.709305031142251 -0.3407325051200068 8.652076915793593 255 255 255
1.1895762791904618 1.1383239293885956 5.702209837811578 255 255 255
0.9607954688618895 0.18088034951561682 5.983300065630294 255 255 255
0.6423311903969712 -1.9320993468238312 6.512394128373419 255 255 255
0.9333159568596449 -1.9080617345338546 6.3041339460269326 255 255 255
1.3434920967667676 1.6304827090200762 5.406911653753138 255 255 255
-0.6393501402797295 1.3835166802439263 5.127331766277245 255 255 255
-0.15549417999156676 -2.1214725314716714 7.107296838070143 255 255 255
0.8482171719246921 -0.7159008556620501 6.193931649239828 255 255 255
1.0494765401649693 1.4730394566975147 5.773563506034539 255 255 255
1.427327269279879 -1.7419637238980799 5.933659236856602 255 255 255
2.430542143012986 1.1246436527921118 5.4960484856114515 255 255 255
1.2027658399010375 -1.2194301236819165 6.032336712926938 255 255 255
1.1991485195129776 1.1954712284059799 5.690778861361753 255 255 255
-0.47634475277444444 1.5247751382900296 5.1260830843828895 255 255 255
-1.812835536539715 1.5989969560328607 5.482395624194521 255 255 255
-4.160598898195451 -2.170666680900738 9.632925085540279 255 255 255
1.816436812857423 -1.0871473965499554 5.54434786798882 255 255 255
-0.15862197015769222 0.8828945809113741 6.005475464130207 255 255 255
1.1980359033562757 -0.7490917636011439 5.961431099760858 255 255 255
-2.5065537662174684 -0.7685838125192804 8.566982294178974 255 255 255
0.9247845773225865 0.5345894796987969 5.992412055953322 255 255 255
1.0850456388024288 1.5186955759363352 5.74088228159204 255 255 255
1.659733715099502 0.06753083346706762 5.5313191135344635 255 255 255
0.3253385977240651 -1.0759785133409205 6.611463021799578 255 255 255
-0.20696339161887056 0.8969820783771311 6.056042696235551 255 255 255
1.2336589586477391 1.4827647089876954 5.63907161027266 255 255 255
-2.431403179433167 -0.005122016396061518 8.412121676768882 255 255 255
0.10015215820087407 0.4901858732046881 6.336664868018562 255 255 255
1.6736991865931858 -1.1327574616796037 5.645735698006694 255 255 255
0.07633544815260011 0.5197432543972291 6.339803796554585 255 255 255
-0.629409541922437 -1.302128692499065 6.626229429975451 255 255 255
1.6992995170257104 0.31520898123623503 5.45155678221556 255 255 255
0.9872131815201463 -1.1424850202723882 6.16049221123705 255 255 255
-0.32466359365507463 -0.2805275097188074 6.41603387093922 255 255 255
-0.14576925563670454 0.23076012744625998 6.528209447160899 255 255 255
-2.7797579446622196 -1.7209179702091941 8.88764464871136 255 255 255
-0.13017584907969237 -1.9008392803451624 7.057434921899558 255 255 255
1.7787903100506146 1.5996655998966616 5.0868597427449505 255 255 255
-2.431403179433167 -0.005122016396061518 8.412121676768882 255 255 255
1.2952080852073138 -0.34802414990425384 5.838359904468409 255 255 255
-0.6578551519172715 -0.8645538369373983 6.620633532594713 255 255 255
1.5261607074723975 0.47004925541678266 5.5485056362916945 255 255 255
-2.2324879335816945 -1.7587292745243124 8.529283137262901 255 255 255
1.3456872444330672 0.09585038146354244 5.7414944423121455 255 255 255
1.5939416411425182 -1.518954345215167 5.768998234135707 255 255 255
0.15412266699979452 -1.598959600948975 6.823260128822703 255 255 255
1.002239674524842 -0.7205373661079902 6.102282274726066 255 255 255
1.6765230397070787 0.3811628980208694 5.457965778734941 255 255 255
1.8800421837703793 1.1891791836298338 5.182392783899775 255 255 255
-3.4118021069199567 0.6183533911634697 8.953930646290535 255 255 255
0.11317381402531997 0.28320782302003356 6.322440225083414 255 255 255
1.3425812773679062 -1.2492781732616425 5.91469127669627 255 255 255
1.0509360895214646 -1.154586896657287 6.080843853133263 255 255 255
-0.9188844978173423 -2.2341758446593416 7.665700668091645 255 255 255
-2.792397555794192 0.22567283264913654 8.643805386393385 255 255 255
1.7752229374594302 1.6330216262643062 5.072133840407844 255 255 255
-2.742997838368404 -0.3553036891621939 8.693098319468186 255 255 255
1.3792099904287038 1.638025509067599 5.370776178889459 255 255 255
1.6901604679326234 1.4553518459809636 5.3076031582012595 255 255 255
-2.2080141321126954 -2.297860230714158 8.58911599997981 255 255 255
0.473979510640195 -0.4730603185649928 6.431558023821726 255 255 255
1.4721914562234355 -0.9960436121948116 5.785981692104053 255 255 255
-1.8870084795844364 -1.5855811656847598 8.255817020122407 255 255 255
-2.1623604088912334 -1.1296519115816037 8.416915251135997 255 255 255
-1.8781484252243126 -0.9083551093041075 8.161967787507256 255 255 255
-2.2895413090772156 -0.22729615712918022 8.350898509058847 255 255 255
-2.053486692902789 -2.0647547582982475 8.45393759324467 255 255 255
0.07633544815260011 0.5197432543972291 6.339803796554585 255 255 255
-2.3449198689138497 0.43783901307652606 8.285147264508021 255 255 255
-0.04501695951562932 -1.7978170338698247 6.959943019296933 255 255 255
0.885609647751699 -0.09638280919243918 6.108084777941392 255 255 255
-1.2772591681651844 -2.155817091413138 7.91479726839064 255 255 255
1.7026355025187545 0.8531390027572647 5.370665354342696 255 255 255
1.5214364230140345 -0.7869942082857658 5.724379670466378 255 255 255
-1.802550173118182 1.381420840470657 5.572963848014151 255 255 255
1.5388808489767223 0.9254031659040199 5.481783260916033 255 255 255
-0.7532921197156127 1.434823903248869 5.097275486563905 255 255 255
-1.613791241144611 -2.4255649914354382 8.194089836526325 255 255 255
1.1000972948889736 -1.73628281123942 6.16370680872014 255 255 255
1.4128640492535 -1.4833245302065996 5.901365766201649 255 255 255
1.422034168703575 -1.51805323880356 5.882574930224492 255 255 255
-2.334621878574219 -0.03309300634914579 8.356470995998498 255 255 255
1.3231563935777995 1.2635453521875495 5.5886870360230185 255 255 255
0.9618920501710597 0.7896358295332366 5.910146510250705 255 255 255
1.434165672315508 1.4731597391835405 5.499746700947703 255 255 255
0.5014519746374271 -0.9621602480528307 6.471596829918998 255 255 255
1.1407455101783817 1.210200191433966 5.744606440038491 255 255 255
-0.07578205668855853 -0.3170039103482484 6.52745054586631 255 255 255
1.080314539703256 -0.809205728605302 6.049488424398767 255 255 255
-0.047713368566875525 0.12765214320745089 6.468431206125628 255 255 255
-2.7829146920837147 1.2494750289992052 8.490241240189869 255 255 255
-0.5866410239184852 0.5407679950896754 6.508133002782904 255 255 255
-0.3708222325562013 0.6362529445493208 6.457919620642349 255 255 255
0.7421008181804846 -0.7018657246141984 6.278602651035068 255 255 255
-0.6547551000710787 -2.2276437980363295 7.372426897754166 255 255 255
-1.6725240639967782 1.0962295349388655 7.0619760473503534 255 255 255
-0.7577353543782583 -0.48084437770597743 6.874216930776287 255 255 255
-0.9787779196259456 -1.418088585596108 6.959684278707842 255 255 255
1.3425812773679062 -1.2492781732616425 5.91469127669627 255 255 255
-0.2675302558716874 -1.1183063001989904 6.609268270292144 255 255 255
-0.14093780548898172 -0.2648040721872357 6.589535738238275 255 255 255
1.7440464286865918 -1.2962683078498765 5.628392958229986 255 255 255
-1.9072377576540804 -0.6401876710934955 8.134293527432733 255 255 255
1.1717288082034694 -0.7695462221492221 5.968340987124147 255 255 255
-1.8627221024208414 1.380707041099198 5.600892969912519 255 255 255
1.216471124994892 1.0589389218633796 5.6930562028423815 255 255 255
-2.6667144629517634 -2.6694367052263757 8.962256245725031 255 255 255
1.0336516716343707 0.7093010770557426 5.879242342173845 255 255 255
1.5025026196034883 1.0652757346988069 5.492202217218312 255 255 255
1.3084263782953027 -0.5511227461124638 5.835362536348872 255 255 255
1.0408829591269129 -1.1538148623732796 6.116744647790759 255 255 255
-0.6416604146067785 0.1700697187917121 6.700933855780424 255 255 255
1.1247245723465729 -0.12943220269916164 5.949338561625656 255 255 255
1.701535415162867 1.6200145909084678 5.136941967677075 255 255 255
-0.8000745638120593 -1.0781832582311686 6.848212260133801 255 255 255
-2.636159958157527 -0.3901368861630817 8.614999340958686 255 255 255
1.1980359033562757 -0.7490917636011439 5.961431099760858 255 255 255
-2.0407014093950306 -0.2614752170270153 8.188000152456588 255 255 255
1.1118567500464134 -1.1449095858888403 6.073596887568815 255 255 255
-3.361590224408216 1.2133744540934943 8.858640583190313 255 255 255
0.3736341423543242 -2.017225785035228 6.717901783785675 255 255 255
1.0726620500721804 0.34538029741966997 5.897916918699015 255 255 255
0.7086221204095754 -1.8754788989126736 6.454737407645675 255 255 255
-0.5194280095532389 -2.144516777125813 7.259438721444414 255 255 255
-0.9129647953249126 -2.2184432992008656 7.679067640123064 255 255 255
-1.330000849110303 -2.2647920584090966 7.9626960869419685 255 255 255
1.2168770476060877 1.0348535236063678 5.705156371096164 255 255 255
-3.4623623922880395 1.7628432720667697 8.800225254447911 255 255 255
1.0927996220009697 -1.5196419202460583 6.122172874449023 255 255 255
-2.354164227277868 1.013248864605985 8.2456953330109 255 255 255
0.9490269808974924 0.3546906216562845 5.975678263175823 255 255 255
1.0227308543645819 1.2642001697738026 5.829236027052734 255 255 255
1.653364452322064 -0.5726125827945164 5.599460714487353 255 255 255
-1.8908624056051562 -2.4061131857541667 8.396160985975634 255 255 255
1.1717288082034694 -0.7695462221492221 5.968340987124147 255 255 255
1.691315618862317 -1.5165835238592345 5.7156271659998295 255 255 255
0.08173741674609863 0.804323914001589 5.86180541795954 255 255 255
0.07081160351976486 0.09315102212188649 6.395185576720564 255 255 255
1.2664148132696813 -1.249900067364242 5.97899525720274 255 255 255
1.5204069975215972 1.0711761622352634 5.46922348611205 255 255 255
1.9205014685071258 -0.033838844445922875 5.334378700739859 255 255 255
1.0340245654503097 1.5321827811312112 5.770664476010948 255 255 255
1.329957676615319 -0.11109529137391291 5.776501858020666 255 255 255
1.3200682326892026 -0.13144620058410544 5.788071326466005 255 255 255
1.0271508732430148 0.527678079911879 5.907370663312461 255 255 255
1.129612245617397 0.6024088594641382 5.806293435937493 255 255 255
1.238335749443638 -1.4842419588630762 6.027676086160407 255 255 255
1.269157075783135 -0.9998969363444655 5.958317725394947 255 255 255
1.048397725610733 0.5071515616323601 5.900829575516905 255 255 255
0.3466434924630752 -1.3755628849125292 6.6461373197833 255 255 255
1.3896111806646048 -1.7266723126226484 5.949581670762117 255 255 255
1.281932783174136 -1.3991072255184356 5.978800059463978 255 255 255
1.4922114569633145 -1.5775434632212229 5.848955262359693 255 255 255
-1.0067140578433709 -0.6808401690640948 7.048501209501321 255 255 255
-1.7347281859784998 -2.095476710036787 8.232707404330142 255 255 255
-1.7242265056032404 -1.1677143559325704 8.08464212704565 255 255 255
1.424311816250586 -1.764085542380621 5.930443128163412 255 255 255
-2.5133943004702344 -2.1071077065118153 8.770951977602678 255 255 255
0.32143265976772195 -1.7152348507196673 6.711459436473136 255 255 255
2.623787459690295 0.522461677912803 5.5774997749608 255 255 255
-4.2630363873767845 -2.092050157832909 9.629757032789394 255 255 255
-0.6614790089931578 0.2797012047033852 6.761861034203038 255 255 255
-1.8897040954561397 -0.2669956268509593 8.069305855820877 255 255 255
-0.738019449205622 1.2847466221521326 5.1161147665312905 255 255 255
0.31727296675004935 -1.2642359413884294 6.646038502442921 255 255 255
-0.6143036431401167 0.13953672292096053 6.717830511954234 255 255 255
-0.8930483483787375 0.9413703412919372 6.526064396888855 255 255 255
-0.4385949595805001 0.9092867470952722 6.228349997635013 255 255 255
0.5089386917126886 -1.167625915301153 6.505055691051355 255 255 255
1.1030062937697331 1.2595156360479518 5.767671737051221 255 255 255
-1.3589504383899613 -2.435350597474706 8.01820374282809 255 255 255
-1.9313236209370208 -0.06715585449563034 8.075048046654645 255 255 255
-0.6506292992594184 0.3009145499059055 6.782527080264529 255 255 255
-2.9231964247493445 -0.9663704591191536 8.879684177003247 255 255 255
1.314336979462506 0.3295981589745796 5.726007354811594 255 255 255
1.6114496172029067 -1.0155523634162986 5.6879816617154155 255 255 255
0.8627965964164553 0.9337699680315636 5.98191585924792 255 255 255
0.32264370426665 0.5507965815199927 6.168711880140448 255 255 255
-1.397686078731298 -2.262536716948678 8.023693615258896 255 255 255
0.8182555587323539 -1.8544690140971218 6.387923699261807 255 255 255
-3.4699025852092276 1.6474206498260213 8.82089496305805 255 255 255
-1.0151053966942625 -0.19513101741848018 6.870899004747318 255 255 255
-2.529383751899373 -1.0106959023097897 8.621482180542017 255 255 255
-0.2430148925080922 1.0373937412366863 6.058257351979306 255 255 255
0.9184627537055787 -1.899730450795983 6.315417776323236 255 255 255
-2.4845977276030564 -1.530651412597166 8.681257027726167 255 255 255
0.08968534164726058 0.23762957391899267 6.340231615861799 255 255 255
1.661922509501434 -1.5774792289525998 5.726582356437652 255 255 255
0.068562140416456 -1.5803780395750733 6.861174956719664 255 255 255
1.1164774828077275 -1.688915514074079 6.145364354984563 255 255 255
-1.0957908862685724 -2.2909101857711964 7.7966936177220845 255 255 255
1.1967298416905796 -0.794492474616409 5.951591975652211 255 255 255
-2.0493913242069386 -2.5406876035136152 8.52227794414873 255 255 255
-1.1995776699147929 1.3323890642155465 5.141046825344068 255 255 255
-2.0714764776460157 -1.919054638035169 8.42106211322077 255 255 255
-0.9824403653314722 0.04545127141750253 6.96131277556488 255 255 255
0.34307066906363914 -1.3982550882236349 6.649416986066026 255 255 255
-0.11543077263108593 -1.7863844091362047 7.0306260010211385 255 255 255
1.3127606983404794 0.13029606301234414 5.767827836937148 255 255 255
-2.5726455740474417 1.0359830356120767 8.361689772991554 255 255 255
-0.13249989599187048 -1.0658956085200997 6.480157045387068 255 255 255
1.8513041863376205 1.1841589474370824 5.2116967938890495 255 255 255
-0.7201843171497424 0.9300692755218742 6.406029236747967 255 255 255
2.4288695374506055 1.0829238736835982 5.497922119801158 255 255 255
1.727181169788704 -1.5319691029964009 5.679391725376905 255 255 255
0.42064589392933394 -2.0360138008781474 6.688490561406981 255 255 255
-0.11505024446015319 0.9025366636595712 5.985529739261716 255 255 255
0.8617899580966678 -0.7257628067972938 6.186628242853931 255 255 255
1.406603251916369 -1.2471846756384124 5.87796290428778 255 255 255
0.8597423779740118 1.271134049884052 5.916798330764004 255 255 255
1.591268597773078 -0.5504198430091028 5.647482380417057 255 255 255
1.3005267360971609 -0.32572829443635304 5.831964157520895 255 255 255
-0.8774944052384096 1.3493477048029368 5.075943297081538 255 255 255
0.4667271158112248 0.5273258307530485 5.891641968930431 255 255 255
0.567619153928995 -1.6475894029414235 6.533493469582556 255 255 255
-1.2772591681651844 -2.155817091413138 7.91479726839064 255 255 255
-0.8514607404599656 -2.297305065965718 7.631204960625415 255 255 255
1.5624459662775132 0.6745633640773426 5.508382817211207 255 255 255
-2.6509280610326367 -1.9262071705400645 8.849614613218964 255 255 255
1.208506084608851 -1.2466883769990345 6.010971583777955 255 255 255
1.4712355232206111 0.434670235169992 5.585572155457763 255 255 255
-1.0526619737712097 -2.1770967841928814 7.772103976777359 255 255 255
-1.8908624056051562 -2.4061131857541667 8.396160985975634 255 255 255
-2.1797848499035877 -2.439866364167924 8.600431801097615 255 255 255
1.0432171026331807 0.7338016102017865 5.861690627838427 255 255 255
-2.130310262021437 -0.042972958677763386 8.221019611535061 255 255 255
1.7611480178651626 1.6964903471526844 5.081239484862857 255 255 255
0.45262820968884593 -1.549966073181185 6.586173669364218 255 255 255
-1.6615277628741352 -2.428287931047403 8.228657339275575 255 255 255
1.710952503306482 1.4538084244749772 5.297985529450325 255 255 255
1.0061903676845008 -0.5310653536643448 6.092737493771811 255 255 255
1.1192791249865406 -1.0114468868149744 6.0476711012137745 255 255 255
1.4619717672996884 0.734606159939084 5.561515186778505 255 255 255
0.6036215805692098 -0.926039150950768 6.403890745616074 255 255 255
-0.894582841480793 -0.3302853947617721 6.963751131952453 255 255 255
-2.590342178686649 -2.6822210254226637 8.920930062315975 255 255 255
-2.0415295908209017 -1.9303171947657811 8.413856479597436 255 255 255
-3.168779633212005 2.055777494501486 8.385195231645081 255 255 255
-2.069106221997087 -0.041994775539692684 8.16702437638121 255 255 255
0.2236535271787112 0.5829650351065049 6.223318222206018 255 255 255
-0.5891488718950626 0.5222052481503586 6.516206936484899 255 255 255
1.658491110410602 0.041588493704820026 5.51620519379525 255 255 255
0.43530899468102374 -1.432894521108135 6.591411311519918 255 255 255
-2.4237758320261356 -0.7916250883137868 8.526288722418375 255 255 255
1.3270086210167855 1.2381734202903836 5.601454034068029 255 255 255
1.5570922295939338 1.2079341818829405 5.4366948405163695 255 255 255
-0.8862067286148393 -2.304412426308668 7.651477884134766 255 255 255
1.2006605299520694 -0.010975823134886917 5.8520989577994404 255 255 255
1.4655462044774663 -0.3679495378905583 5.716907362660482 255 255 255
-0.4019646404491223 0.13617940810887072 6.531510431655111 255 255 255
1.174743608115273 -1.7150437428872964 6.113212477009611 255 255 255
0.4592006436192638 -1.8350121028768291 6.613491330974902 255 255 255
1.1107911778862474 0.8885367322785885 5.811237926396442 255 255 255
0.949454689271071 0.14415008322595305 6.0058132598646345 255 255 255
-1.7035096716815894 -2.156965917746924 8.207218766105562 255 255 255
1.6210336645511512 -1.0402857913747017 5.680878340710146 255 255 255
-0.5908544157116126 -2.126147108632756 7.317389706737446 255 255 255
-1.3614572588553293 0.22594499419276848 7.381987505151375 255 255 255
-2.8176266065695588 -1.2906801900584606 8.873698952735715 255 255 255
1.9108557627660063 -1.604738407986882 5.550536734090569 255 255 255
1.8975442285554462 0.4365974006572155 5.28783126528707 255 255 255
0.7662247907026135 0.6441583711005507 6.065198716982536 255 255 255
1.1407455101783817 1.210200191433966 5.744606440038491 255 255 255
-0.7856661189303283 -0.47258613346624656 6.893795600049004 255 255 255
0.673200592721684 -1.1021073552832827 6.372219778595273 255 255 255
-0.7049339405714317 0.3025489806593583 6.763363960337438 255 255 255
-0.38001479951522193 0.08772768740068658 6.542582844008091 255 255 255
1.7206741813643576 0.3985893291803101 5.415937992728165 255 255 255
1.1379885667927914 -1.8897675313599025 6.146566170801349 255 255 255
0.4024932570124547 -1.537879686707891 6.621134426968981 255 255 255
1.458077953804539 1.0847042195308438 5.522830075590814 255 255 255
-0.13589120884091083 -0.28831420071248137 6.5829291261235525 255 255 255
-1.0020068925393388 -0.883478702064921 6.994251140188341 255 255 255
0.9085917647431657 1.45608039366576 5.873638238119151 255 255 255
-0.6393501402797295 1.3835166802439263 5.127331766277245 255 255 255
-0.5110073348254599 -2.166494401586851 7.250324206547846 255 255 255
-3.4344784559812154 -1.0269176820251498 9.187385081712781 255 255 255
1.0870970663317472 -1.2938710017464516 6.103612093029307 255 255 255
0.7949883517768546 -0.29461769672723326 6.204547830841808 255 255 255
0.18935444077367564 0.8361390625804273 5.777769306160636 255 255 255
0.8528647209551772 0.13490447619120405 6.0904696048945 255 255 255
0.99033705463455 -1.339722761311875 6.179604301705022 255 255 255
-2.2815011842363644 -1.3612678584523152 8.512264172808177 255 255 255
1.499504052546974 0.40332828596316056 5.574330488398692 255 255 255
-1.8372061549252316 -1.1460803161344595 8.149055105615775 255 255 255
-1.0831131611372486 -2.1851608169128007 7.769485595343251 255 255 255
-1.2997659527477683 -2.2489496624808094 7.938858094421861 255 255 255
-0.6481108677501081 0.28730244449306097 6.77689757983129 255 255 255
0.03234532177355067 0.07386833120633675 6.42070887526794 255 255 255
1.0937761778080675 0.8717324028910716 5.819321248664938 255 255 255
-2.3950586357055674 0.8410402634558877 8.291961561945058 255 255 255
1.3978411158985986 -1.0307704617550395 5.818464315757288 255 255 255
-2.0415295908209017 -1.9303171947657811 8.413856479597436 255 255 255
1.7770138859747182 1.0310941347576803 5.301158182800741 255 255 255
1.2908690360831936 -0.31546418534726267 5.834311109893239 255 255 255
-1.3589504383899613 -2.435350597474706 8.01820374282809 255 255 255
0.8056533250416028 -1.1515553069281654 6.2825516828557895 255 255 255
-0.8238498483866964 1.2824839334756672 5.100919612466946 255 255 255
-2.51357560638936 -1.9134914088177952 8.745453316785623 255 255 255
1.0908807028585108 1.487146478817128 5.744512178184738 255 255 255
-1.0242465581903004 -0.5820920122102874 6.990297554428626 255 255 255
-3.413012043979786 -0.23036655764293906 9.085061267689017 255 255 255
-1.0065253113275352 -0.002520601263835482 6.9793349552729325 255 255 255
1.014396698628736 1.066773612343681 5.843919031498362 255 255 255
-0.3676642212333237 0.528386370651309 6.469849780522915 255 255 255
0.10778705150406677 0.317507815191128 6.318590847136481 255 255 255
0.4468488016154225 -0.9481184876386092 6.523016442721083 255 255 255
0.5241736200866771 -1.6190018917313236 6.540512824789386 255 255 255
1.0423613648871126 1.4903987558769334 5.774409646839644 255 255 255
0.6228845205086021 -1.640958759653206 6.483489578851412 255 255 255
0.3920252906793138 -2.036514612563246 6.708721132477887 255 255 255
-1.2221505883937536 -2.0199019085376033 7.861391171008854 255 255 255
1.2958007628596686 0.7184258777807608 5.677118003112387 255 255 255
-0.08403003291052823 1.5924276910838981 5.649477283471433 255 255 255
0.4554175437683076 0.8303329448228126 5.584182067254093 255 255 255
-1.641930876508585 1.2406579678220426 6.907121247788842 255 255 255
0.36909202998117285 -1.3945326016293644 6.637722518844565 255 255 255
-1.7347281859784998 -2.095476710036787 8.232707404330142 255 255 255
-0.8843793277473841 0.4844466240103576 6.577894686822174 255 255 255
0.6460174686833781 -1.9642082332787087 6.515714523937524 255 255 255
1.3840223600158803 0.3531593962408943 5.685634567582294 255 255 255
0.45670050623940767 -0.8280093319167523 6.480445948425385 255 255 255
1.5338122451152953 1.1956438611415718 5.473017234794441 255 255 255
1.1991485195129776 1.1954712284059799 5.690778861361753 255 255 255
-3.4392469886511883 1.214478407169717 8.878741364903023 255 255 255
0.2275150043193777 1.3342230441273022 5.667353113400154 255 255 255
0.22061758540155996 -1.9457948715629196 6.813616363461959 255 255 255
-0.817260976295273 -0.45078235043550324 6.910321110510192 255 255 255
-2.7707464967353883 -0.3706936722224845 8.726945701729147 255 255 255
-1.8392459031021322 0.751336213633131 7.471955547400172 255 255 255
-1.0515952724702107 -2.2189085057037463 7.770267848855265 255 255 255
1.6844752786738595 -1.7859788247998358 5.740791191240684 255 255 255
-0.8405466311622763 -0.4289682912043253 6.929176409410965 255 255 255
1.0675039859793467 -0.07481269680134704 5.964829515971755 255 255 255
1.5569774898820992 -0.8538054308196171 5.704751670506068 255 255 255
0.5899438199257968 -1.6505094908138853 6.509773180168009 255 255 255
0.9426992822468936 -0.7113579797261969 6.128618755814224 255 255 255
1.1617428994411336 0.3514798193081386 5.832382563713788 255 255 255
1.4572588139678 -1.716815991314185 5.89871613312175 255 255 255
1.7611480178651626 1.6964903471526844 5.081239484862857 255 255 255
0.8418460757436748 0.9369871219444034 5.981876193456866 255 255 255
0.7679412726714776 -0.7253397796715232 6.258171719614231 255 255 255
1.2839013398997547 1.4561386079790202 5.59647367668329 255 255 255
0.9584236164664848 -1.1381437166883883 6.179175567259628 255 255 255
-0.6628207654845242 -0.4834527582170665 6.805996678441761 255 255 255
0.9632904834404654 0.9799430079692787 5.887014572393115 255 255 255
0.9838592326951456 0.9279002301471515 5.8829740000796455 255 255 255
1.4221090581599263 1.08326373203861 5.55272844060527 255 255 255
1.5091783781742862 -0.8243134048755968 5.743885232784635 255 255 255
0.1330033823887478 0.8396693303533734 5.822686032415259 255 255 255
0.1383348578320935 1.4692988212825264 5.716093425653648 255 255 255
-0.28933783033759586 1.4483003370687475 5.4454750901438125 255 255 255
1.0955894825567263 1.0677766941780165 5.773675272966437 255 255 255
1.206899342582531 -1.7228130529124948 6.091238927860208 255 255 255
1.6824067461751768 -0.16493836793231798 5.534747384809178 255 255 255
-2.6254670315559405 -2.1429066106905683 8.85084731475927 255 255 255
-3.0558589862956596 0.0602010450673053 8.848796413338036 255 255 255
-0.32143990443415804 -1.078113274967821 6.595093897764674 255 255 255
-0.7590266881393201 0.5148267880111747 6.527105420444492 255 255 255
-0.14441064321066036 -1.0047136018981588 6.4902290141023 255 255 255
-0.3653837938434956 0.43173603685492723 6.494911148416052 255 255 255
-1.5917465707526106 1.6984707048005796 5.185590825018729 255 255 255
-0.6614061026792852 0.2926842436803167 6.763095327728107 255 255 255
-3.439780321010382 1.2656375691978843 8.8725990064563 255 255 255
-0.8131497635937441 0.05565074926171487 6.7549579474601895 255 255 255
-2.6110612304510536 -1.8756097542537953 8.816318897891142 255 255 255
1.063829176462394 -1.2261371801626346 6.11945942759977 255 255 255
1.4273982653059307 -1.2667094070637885 5.874072493610207 255 255 255
1.508655305493527 -1.0193958210382938 5.769301114842415 255 255 255
1.1831917996256407 1.1515265481342074 5.703975162023239 255 255 255
-1.5559595392284518 1.3534546956664109 5.3952376854403985 255 255 255
1.1777787844169243 -0.4453836153855584 5.926318347531173 255 255 255
1.2486773222263856 1.4475081339320435 5.603538367520582 255 255 255
0.9807143526866733 0.6879590995362808 5.923550717407676 255 255 255
1.397412808342338 -1.2570773686330932 5.874054406831459 255 255 255
1.2719632112541819 -0.7787261844105458 5.906025867838842 255 255 255
1.4333856679650914 -1.26070753474726 5.871495871588294 255 255 255
-2.7396348604648257 0.4833792369807885 8.551182545272098 255 255 255
-0.15752648698560248 -2.1757219994690273 7.1116905602645275 255 255 255
0.8271546745719003 0.379612655085687 6.070493862236277 255 255 255
-0.7371030033565712 1.4057324805996498 5.108618924951677 255 255 255
1.072366193358696 0.6922985728521591 5.855691013763551 255 255 255
-0.1374873006856038 0.9020030656658389 6.000899547293717 255 255 255
-0.8020983398050674 1.3498700097503935 5.09701754275446 255 255 255
-0.6830536813243532 0.2973721169159503 6.767987805062261 255 255 255
-0.01999991410341435 0.3176760567785443 6.304962684996252 255 255 255
-0.18838460070440083 -2.132592761381533 7.114907088944221 255 255 255
-1.3498800111220688 -1.862760106406963 7.932937882171013 255 255 255
0.8234308668495693 -0.727385380918225 6.218249848479298 255 255 255
-1.8218073016716512 1.0199608345160684 7.1643086932117255 255 255 255
1.6182365854911658 -0.1560807496704291 5.576743908215538 255 255 255
1.391387520476155 -1.3727624234916758 5.892138295603865 255 255 255
0.8025179311882618 -0.7386217362221883 6.251363022306869 255 255 255
-0.9787779196259456 -1.418088585596108 6.959684278707842 255 255 255
0.4935507580987521 -1.2758670705380464 6.528081400655961 255 255 255
1.1091125214165707 -1.1594063089400555 6.080462655656701 255 255 255
-2.5152682967777915 0.7017961238240135 8.365180253507209 255 255 255
-1.941186872814349 -0.4548494660868287 8.146396277172226 255 255 255
1.5690994050063054 0.8777268647321247 5.480495783602262 255 255 255
0.9671890180375149 1.2787522856378422 5.855046890925295 255 255 255
-0.6799131185871896 1.354166112556428 5.121983926165545 255 255 255
1.4119368878555563 0.9068817356798904 5.594656242586239 255 255 255
0.9623628109508273 1.083759076710003 5.876971623389335 255 255 255
-2.1693647636474913 -1.7532857551569578 8.481459373398756 255 255 255
1.7005647487692177 0.08881347398543994 5.483431543273767 255 255 255
-0.007947804609749776 0.32478643825553366 6.294210510960167 255 255 255
-1.0840300338396507 0.69844870307828 6.961381067582578 255 255 255
0.9584236164664848 -1.1381437166883883 6.179175567259628 255 255 255
0.6166492073656439 -1.66660050833322 6.4896652544598075 255 255 255
-1.1314827935660414 1.1955570153320818 6.569974510039022 255 255 255
1.2978549665010322 -0.7712858471575309 5.874735070255378 255 255 255
-0.807015052014551 1.4337711250832323 5.0853908065606825 255 255 255
1.0070826544582048 1.0889455432459962 5.8520518319195505 255 255 255
-0.7532921197156127 1.434823903248869 5.097275486563905 255 255 255
1.7406214452282944 1.7306020452525352 5.099046855612401 255 255 255
0.4021045440419566 0.6141841370443984 5.939189107248131 255 255 255
0.807313132882438 0.7294091649468407 6.038981285608777 255 255 255
1.467184586676451 0.09922996971756075 5.649429263652426 255 255 255
1.071892987440769 1.1290950682440266 5.78360117094047 255 255 255
0.9620902682026145 -1.0096120622164908 6.176742706754928 255 255 255
-1.3256159521297397 1.2953911812219154 5.244367940415704 255 255 255
-0.6856633357430264 0.2858916373701202 6.761575687356039 255 255 255
1.6732723327231314 -1.7739011681230858 5.7571590975344415 255 255 255
-2.5854820226280406 -1.0165493492905573 8.647239860640857 255 255 255
-1.2221505883937536 -2.0199019085376033 7.861391171008854 255 255 255
2.5657036219555547 0.5301768643379328 5.592495484921963 255 255 255
-2.7970927914674864 0.9083219558061011 8.53370924325943 255 255 255
1.216769170590351 -1.5366077430969327 6.0464544620589145 255 255 255
1.315526868664515 -1.291577985603073 5.935981626864261 255 255 255
-0.7485875236542039 0.18781336585822864 6.686598279202783 255 255 255
1.3925045707569252 0.9141354274979074 5.599664205890676 255 255 255
-1.9154179564371483 -0.8209539737471861 8.163702861850025 255 255 255
1.5239615865337985 0.34171018043577495 5.566311950366321 255 255 255
-0.3916497585961504 -0.9067752015117073 6.474627828074075 255 255 255
-2.0377567503048133 -1.5920466576208385 8.39374056983334 255 255 255
0.28447606455303137 0.8658975744036257 5.707206111524551 255 255 255
1.3784246489143952 0.34063552140963094 5.687054786242063 255 255 255
-0.5495856943124157 -2.107810619634166 7.276989461946455 255 255 255
0.2236535271787112 0.5829650351065049 6.223318222206018 255 255 255
-1.258012920553296 0.9730663321610427 6.773978862432699 255 255 255
0.9547017088000123 -0.9698876460683562 6.190646284415826 255 255 255
1.1088488370234684 0.4985258048238142 5.861327117967029 255 255 255
1.4025920529767504 -1.3551603920070463 5.889451077574767 255 255 255
-1.8431992856835386 -1.784596655293294 8.254597012406622 255 255 255
0.8478752902184263 0.1467943940847524 6.091287676732368 255 255 255
-0.11505024446015319 0.9025366636595712 5.985529739261716 255 255 255
1.1599781726551743 -1.563072888300631 6.078995801065429 255 255 255
0.6584958323047289 -0.6615800272403466 6.315169362774145 255 255 255
0.9884550365294444 -1.003211845685675 6.140825214535986 255 255 255
0.709562725095887 -0.29126730269481815 6.258328912083798 255 255 255
-0.21523571511681902 -0.19465049136528498 6.554255797013185 255 255 255
-0.3792751560985688 0.4533866746280764 6.5011852461081014 255 255 255
-0.803297942629615 0.4024136508897446 6.573273636524373 255 255 255
1.6479730672545363 1.0081136310088707 5.390558938228866 255 255 255
-0.1479082349919752 0.003045507930401854 6.556441739762891 255 255 255
1.027102668397335 -0.11241705412891143 5.991060472905978 255 255 255
1.5569774898820992 -0.8538054308196171 5.704751670506068 255 255 255
-3.4193152740372637 1.253375684003449 8.890790905958537 255 255 255
-1.9154179564371483 -0.8209539737471861 8.163702861850025 255 255 255
-0.7627626641837589 -2.21742485256969 7.548747711860319 255 255 255
-1.078594513366364 -0.7148800376085479 6.973997644855308 255 255 255
0.8150193868028595 -1.8906642083522356 6.389302432531722 255 255 255
1.7852679036381585 0.24193122558351496 5.387638143798451 255 255 255
1.4606544788418978 0.6562150018194285 5.57626675565268 255 255 255
0.31474724727809344 -0.45782345351223536 6.539718626068812 255 255 255
1.430703573077152 -1.7824235356024996 5.920620006972495 255 255 255
-1.330000849110303 -2.2647920584090966 7.9626960869419685 255 255 255
0.39330081768446323 -1.6336294512900384 6.655666793030281 255 255 255
-0.5239901055654266 0.9159881565503394 6.274093974531262 255 255 255
-0.6369978432520145 0.26628189539915903 6.767934314860767 255 255 255
0.45262820968884593 -1.549966073181185 6.586173669364218 255 255 255
0.5048694871722704 -1.4158881994283234 6.529906490157712 255 255 255
-0.5557294257756807 0.40041784750673803 6.637532463391306 255 255 255
-0.08403003291052823 1.5924276910838981 5.649477283471433 255 255 255
1.415121661317776 0.3595051033295648 5.648871627564404 255 255 255
-0.7649316112728282 -0.5120713164224028 6.877053441910698 255 255 255
-1.398524779660311 -1.8528261218217905 7.953538927785005 255 255 255
1.063474636819324 -0.7250196909158512 6.0516000248715605 255 255 255
1.0696682161088298 -0.23913486546657936 5.973155410273953 255 255 255
1.5587925736406276 1.0634316809217486 5.456534364317929 255 255 255
-3.958401876193786 2.013612328655344 8.48420830704818 255 255 255
1.5844122495028181 1.2034686466559399 5.422270092070352 255 255 255
0.9841272536569873 1.055136549890575 5.867917101735197 255 255 255
-0.5709451954645168 1.388577916457569 5.1274091916090025 255 255 255
0.43813189549338677 -0.9244815798646525 6.523731688465006 255 255 255
0.7763143596603848 -1.8849950400846023 6.416881360966879 255 255 255
1.1206189361536485 0.8700643882455765 5.811984833214876 255 255 255
-0.34851936827936353 0.5342668595885651 6.4568889221094725 255 255 255
0.9330108881300132 -0.07452658657594541 6.0426930053652175 255 255 255
-2.5088288139675887 -1.8806197685563146 8.732395561140022 255 255 255
2.4495605082285103 1.3095478567185266 5.403144293234783 255 255 255
1.4025544719139127 -0.38698307026189777 5.753868447251311 255 255 255
-3.415591857214227 1.8391867563001674 8.806165134118812 255 255 255
1.5570922295939338 1.2079341818829405 5.4366948405163695 255 255 255
-0.3707014796058992 0.161727958292481 6.516859838439267 255 255 255
0.2056207371190289 0.34518746585245347 6.271181803651179 255 255 255
1.1899135728316503 -1.1651937399717582 6.028335093085445 255 255 255
1.4060208624479182 -0.41034322182715915 5.753057670013682 255 255 255
1.4180705083118887 -0.781627265699781 5.792595736511044 255 255 255
-0.12513792168324428 0.3752740331455319 6.487311060612015 255 255 255
1.1627960834995343 -0.5281928479687755 5.9559785197388155 255 255 255
0.04159098697045859 1.6024460830531169 5.730753210728536 255 255 255
-1.6160525546255877 1.3008979931579845 5.445453371857976 255 255 255
-0.5681595950217089 -0.44155192583238695 6.7359746776640765 255 255 255
0.9663133987024999 -0.9839995900636647 6.163751841339618 255 255 255
-1.079535803493933 -2.2060291427499883 7.763256297791258 255 255 255
2.623787459690295 0.522461677912803 5.5774997749608 255 255 255
-2.489144493623015 -1.1393958040324492 8.615209547753363 255 255 255
-2.736131074744416 0.041474180528925986 8.632022796905167 255 255 255
-1.0831131611372486 -2.1851608169128007 7.769485595343251 255 255 255
-0.49874132515387587 0.8401402537749816 6.367501984831272 255 255 255
-0.3960909765856455 -0.7553710236455778 6.5092500438445695 255 255 255
-1.3127890726905134 1.066945597079423 6.8232639385502125 255 255 255
1.3771879341972277 -1.8265909198640287 5.968299354119387 255 255 255
1.3038778754399358 -0.3019740442457052 5.821445125575331 255 255 255
1.0471621052765512 -1.5432813006693118 6.1569317451957355 255 255 255
0.7224399706322816 -1.3177596952247976 6.362357862269146 255 255 255
0.6912721294016541 -1.981276756464819 6.4781333631065365 255 255 255
-0.658973861855479 1.3373117426591408 5.13224550723721 255 255 255
1.8117944005944535 1.6420993789753258 5.053973443910499 255 255 255
0.033259578595832416 -0.09605397648825552 6.44466145802087 255 255 255
-2.4037237228984014 -2.337286210117146 8.734894292093815 255 255 255
1.4529634579286224 0.3211658322637594 5.629754782491913 255 255 255
-2.3344602614552334 -0.3788958137959379 8.383362846735324 255 255 255
-0.9450069674362883 1.0366586423921296 6.559917004738359 255 255 255
0.9909400032201844 1.077195117646627 5.862145134658247 255 255 255
-2.702690420591483 -2.022305656912462 8.898218107777545 255 255 255
0.5414543319398287 -0.882177747203693 6.430136488814447 255 255 255
-3.0380424828542645 -1.6948144178460838 9.08393650814814 255 255 255
0.9642709347590674 -0.2964978284990184 6.070367707020545 255 255 255
0.8729824916634873 0.37284346291367204 6.038618692349638 255 255 255
1.0658681898068103 -1.4713345735637888 6.145601378087207 255 255 255
-2.332048034216438 -0.40728173371704685 8.405262637070159 255 255 255
-1.3248461566515737 1.3437171029659047 5.239458513528137 255 255 255
-0.6578551519172715 -0.8645538369373983 6.620633532594713 255 255 255
0.5420709800733701 -0.8605329017065276 6.439243594362685 255 255 255
-2.511435589958729 0.9568805981315859 8.336090869512597 255 255 255
1.1536844145540224 -1.5447617577733095 6.09131626295022 255 255 255
-0.6561575601191589 0.17630114922514284 6.691142823800634 255 255 255
1.8981829684908853 -1.3402934313806412 5.517774227403077 255 255 255
0.8161475370434953 0.794551456871 6.01359287372914 255 255 255
1.1599781726551743 -1.563072888300631 6.078995801065429 255 255 255
-2.424678271903085 -1.5378404060386266 8.633511935388983 255 255 255
0.8528647209551772 0.13490447619120405 6.0904696048945 255 255 255
-1.5693600397601841 1.4370269618818985 5.4103161108591475 255 255 255
-3.411363213067701 2.026580921482387 8.737213011350315 255 255 255
-2.058264241593544 -1.3153060588234895 8.33345673702906 255 255 255
1.7585474134876644 -1.328740030341983 5.614587099419185 255 255 255
-2.9253997012594675 -0.35379925715138394 8.818913936718596 255 255 255
1.3629226086171466 -1.4732310972649554 5.928042827868086 255 255 255
-0.047713368566875525 0.12765214320745089 6.468431206125628 255 255 255
-0.914138903530512 -2.2908489090734623 7.697260255569653 255 255 255
-1.8192008190955762 0.7967685354473193 7.455095786671773 255 255 255
1.499504052546974 0.40332828596316056 5.574330488398692 255 255 255
0.9793821991014072 -0.09878850418631525 6.0476913700149115 255 255 255
-2.5367134844166945 1.239991131548391 8.311589988869954 255 255 255
-1.1709681961231269 1.551961263522688 5.023741262949743 255 255 255
1.6539630852612692 1.2019969479274575 5.366280730534879 255 255 255
-1.560823541009947 1.7121497127014735 5.160370189154216 255 255 255
1.2570011737978097 -1.5467918223105852 6.013145396529468 255 255 255
-0.46718224493689275 0.5364826912600217 6.538791737048147 255 255 255
-2.599763064544588 1.248663432121871 8.375820426995984 255 255 255
-2.0615401252758785 1.4185526637995098 5.747742978286314 255 255 255
-0.2259465021691075 0.9988183212062812 6.05851298540277 255 255 255
0.5263031115621886 -1.2870799456464648 6.518707234031272 255 255 255
-1.9943377344870987 -0.06067325292417368 8.105635157798252 255 255 255
-1.5254099341101377 -1.2035069991963483 7.952003563119115 255 255 255
0.8362481239515315 -1.3375241352590734 6.288598615649654 255 255 255
1.0683187581131302 -0.7468515231086648 6.05938198435594 255 255 255
-0.2499671120002277 -1.3632040275247834 6.42792234608979 255 255 255
-1.137605558049857 1.2853926391593737 5.110150524317756 255 255 255
-1.6769302062600346 -0.43950159052130594 7.950901881946528 255 255 255
1.5699758812154578 -0.789496211033717 5.696065001328498 255 255 255
1.0955894825567263 1.0677766941780165 5.773675272966437 255 255 255
-2.814041634774679 -2.092860617587087 8.980877717161118 255 255 255
0.8838823187943727 -0.04981727162196324 6.073403667909766 255 255 255
-2.1725545106647726 -1.3763879694547037 8.439847121221309 255 255 255
0.7964428865910598 -1.1953682234564762 6.300356813140446 255 255 255
-1.8184355375641383 -0.5308207640739492 8.056625524496488 255 255 255
-1.849481798865834 0.9518319004378794 7.3135098150447275 255 255 255
-2.3430464504502737 0.28411643736385533 8.282999322587726 255 255 255
0.8859191474268615 -0.9585935818644148 6.209767916786234 255 255 255
-0.4281357905085412 0.5345362892423393 6.513032801318058 255 255 255
1.6200875130822803 -1.7603081307940938 5.790962031296093 255 255 255
-1.2808519486061611 0.644087895286858 7.291841269022963 255 255 255
0.24693956899689087 -2.0136192735109018 6.808525670795861 255 255 255
0.137593379104824 1.008601815561605 5.785820172300628 255 255 255
-0.6516398321247365 -2.206054905978521 7.365275308568219 255 255 255
-1.5767205889479297 -1.9294527139334439 8.088821181772634 255 255 255
0.38024430624890954 -1.371447737697596 6.590586317538273 255 255 255
1.1087189016390373 0.4837491809870343 5.8552147479797245 255 255 255
-1.2694609010582485 -2.2224483173290714 7.912006758259954 255 255 255
0.137593379104824 1.008601815561605 5.785820172300628 255 255 255
0.016122577508601216 1.013555181971711 5.872345060507921 255 255 255
0.709562725095887 -0.29126730269481815 6.258328912083798 255 255 255
-0.5333660310303205 0.7424200303488748 6.4630247366740985 255 255 255
-3.436696284204212 0.9912468386309808 8.90628756576082 255 255 255
0.9781164289247444 -1.4707695614065714 6.212563328167287 255 255 255
-0.803297942629615 0.4024136508897446 6.573273636524373 255 255 255
1.1681681697364659 -0.3632044417475193 5.935715487333123 255 255 255
1.6694564989274023 -1.168811253159178 5.658735735498027 255 255 255
1.1564913473345617 1.5595670203431784 5.674035391711231 255 255 255
0.9664050326904616 0.7796408098891756 5.914564314473808 255 255 255
0.3762881480560155 0.9477358177621654 5.630234993203879 255 255 255
-0.40348079248531343 0.15380803402535503 6.540584011273254 255 255 255
-0.7149900779762272 0.1936843041616783 6.680934519746655 255 255 255
-0.8337546446178227 -0.043520225289571335 6.872293971507535 255 255 255
0.7018686142714999 -0.9905073638325602 6.340904742252061 255 255 255
-0.34851936827936353 0.5342668595885651 6.4568889221094725 255 255 255
-2.5088288139675887 -1.8806197685563146 8.732395561140022 255 255 255
1.2664148132696813 -1.249900067364242 5.97899525720274 255 255 255
